NCOLS 224
NROWS 28
XLLCORNER 131175.267783
YLLCORNER 217088.229321
CELLSIZE 1000 
NODATA_value -3.4e+38 
81.2257614135742 91.3241882324219 105.056945800781 109.079574584961 80.7701416015625 71.8509979248047 77.2427749633789 94.543830871582 94.9850082397461 75.1659088134766 62.588565826416 57.0409278869629 48.7475738525391 53.0451850891113 58.4676856994629 34.7693481445312 4.85215902328491 4.28696823120117 6.37966632843018 7.08533668518066 6.28362274169922 7.32279300689697 7.61035060882568 12.5577020645142 21.2177867889404 35.9557609558105 42.7331962585449 50.3904037475586 68.6530685424805 74.224983215332 83.8469543457031 94.1969680786133 93.2927627563477 93.9184799194336 84.6818389892578 64.0160903930664 51.2022933959961 45.9150161743164 63.3471641540527 98.6852340698242 123.445205688477 109.842628479004 122.69441986084 125.592819213867 133.785446166992 132.970474243164 131.291915893555 122.104095458984 126.815849304199 128.134689331055 134.888626098633 150.189682006836 146.572845458984 139.484848022461 142.545394897461 151.092041015625 151.369293212891 161.327926635742 174.433532714844 168.518218994141 152.041519165039 161.974044799805 166.203033447266 153.311080932617 162.084808349609 169.663070678711 184.020004272461 171.090774536133 164.334747314453 147.361618041992 107.492950439453 122.48314666748 103.646408081055 87.3882904052734 92.913948059082 114.307235717773 137.160568237305 162.563827514648 190.957092285156 203.894973754883 210.471099853516 226.251129150391 213.276596069336 191.677871704102 185.823715209961 195.946426391602 191.882141113281 187.387603759766 189.341827392578 200.888702392578 188.922714233398 177.058364868164 158.687149047852 144.855880737305 138.979782104492 149.483749389648 160.058883666992 166.774169921875 172.669677734375 179.659194946289 186.230407714844 186.574676513672 190.029678344727 191.603912353516 204.934707641602 210.549575805664 201.80305480957 211.087265014648 220.47087097168 234.686584472656 249.485580444336 267.392852783203 291.519439697266 285.388366699219 307.598236083984 339.203643798828 338.795715332031 319.698760986328 327.014434814453 338.877685546875 353.433166503906 354.371002197266 339.168426513672 331.804809570312 344.499755859375 340.213531494141 329.44677734375 325.202667236328 337.244781494141 339.430786132812 335.506774902344 335.909088134766 343.571655273438 339.223846435547 333.740142822266 326.616058349609 324.490142822266 358.381713867188 336.381927490234 337.853332519531 326.122833251953 329.979614257812 347.803100585938 352.423400878906 364.053894042969 375.975891113281 390.640350341797 402.264068603516 405.573394775391 372.011444091797 352.499969482422 348.033050537109 357.963043212891 348.739501953125 349.111968994141 -3.4e+38 -3.4e+38 -3.4e+38 -3.4e+38 -3.4e+38 -3.4e+38 -3.4e+38 -3.4e+38 -3.4e+38 -3.4e+38 -3.4e+38 -3.4e+38 -3.4e+38 -3.4e+38 -3.4e+38 -3.4e+38 -3.4e+38 -3.4e+38 -3.4e+38 -3.4e+38 -3.4e+38 -3.4e+38 -3.4e+38 -3.4e+38 -3.4e+38 -3.4e+38 -3.4e+38 -3.4e+38 -3.4e+38 -3.4e+38 -3.4e+38 -3.4e+38 -3.4e+38 -3.4e+38 -3.4e+38 -3.4e+38 -3.4e+38 -3.4e+38 -3.4e+38 -3.4e+38 -3.4e+38 -3.4e+38 -3.4e+38 -3.4e+38 -3.4e+38 -3.4e+38 -3.4e+38 -3.4e+38 -3.4e+38 -3.4e+38 -3.4e+38 -3.4e+38 -3.4e+38 -3.4e+38 -3.4e+38 -3.4e+38 -3.4e+38 -3.4e+38 -3.4e+38 -3.4e+38 -3.4e+38 -3.4e+38 -3.4e+38 -3.4e+38 -3.4e+38 -3.4e+38 -3.4e+38 -3.4e+38 -3.4e+38
70.8600692749023 67.9241790771484 72.6603851318359 99.5457992553711 96.5581588745117 79.3775787353516 66.6030120849609 72.198486328125 75.6785125732422 63.4178161621094 50.5181617736816 44.5312614440918 44.2818565368652 46.8855781555176 46.0091896057129 7.25394868850708 3.33550930023193 5.83433771133423 6.84430694580078 6.65001726150513 6.48762559890747 7.20836019515991 9.76894664764404 15.8972940444946 26.0376644134521 37.2252235412598 42.2098236083984 54.2360877990723 77.6520309448242 99.7482299804688 124.581848144531 109.718734741211 90.2643127441406 74.2552719116211 65.8972778320312 46.2117233276367 48.5726776123047 91.591423034668 114.470306396484 114.189147949219 125.738922119141 137.414627075195 145.206848144531 135.254287719727 129.112075805664 142.207702636719 153.247680664062 153.929016113281 145.635650634766 132.394134521484 134.597793579102 140.554748535156 156.480453491211 160.135437011719 163.330032348633 156.931671142578 150.348678588867 167.806823730469 161.000549316406 145.409042358398 148.85270690918 161.779296875 144.340789794922 152.666290283203 156.36784362793 163.637634277344 177.232345581055 182.091079711914 165.227661132812 147.715133666992 110.325477600098 95.7773818969727 81.0235900878906 83.9908447265625 128.585220336914 154.244750976562 165.805786132812 195.290252685547 205.536422729492 219.975784301758 228.055114746094 230.689010620117 230.575134277344 217.213790893555 210.383163452148 198.972732543945 183.215377807617 185.51594543457 196.894470214844 199.230621337891 193.617218017578 167.443817138672 150.975372314453 138.449478149414 144.685989379883 155.018844604492 159.172409057617 168.523040771484 178.989135742188 182.663238525391 180.961715698242 182.536117553711 182.557312011719 187.51774597168 198.009338378906 198.642929077148 199.725067138672 209.521011352539 210.538955688477 222.193801879883 238.849517822266 246.138427734375 254.469055175781 274.644012451172 302.668792724609 315.846038818359 318.264526367188 302.814147949219 312.636169433594 339.042205810547 357.492645263672 350.025787353516 330.585693359375 309.520721435547 337.883483886719 357.329956054688 349.127777099609 341.018768310547 344.507873535156 350.846862792969 355.831787109375 355.088226318359 352.920959472656 334.498107910156 317.242156982422 310.616333007812 319.833435058594 348.935821533203 329.1845703125 330.035491943359 329.453308105469 311.480102539062 316.722747802734 329.024597167969 334.660675048828 349.210266113281 335.595458984375 332.718811035156 348.951507568359 362.94677734375 356.765167236328 348.964691162109 324.695129394531 312.397827148438 315.82763671875 -3.4e+38 -3.4e+38 -3.4e+38 -3.4e+38 -3.4e+38 -3.4e+38 -3.4e+38 -3.4e+38 -3.4e+38 -3.4e+38 -3.4e+38 -3.4e+38 -3.4e+38 -3.4e+38 -3.4e+38 -3.4e+38 -3.4e+38 -3.4e+38 -3.4e+38 -3.4e+38 -3.4e+38 -3.4e+38 -3.4e+38 -3.4e+38 -3.4e+38 -3.4e+38 -3.4e+38 -3.4e+38 -3.4e+38 -3.4e+38 -3.4e+38 -3.4e+38 -3.4e+38 -3.4e+38 -3.4e+38 -3.4e+38 -3.4e+38 -3.4e+38 -3.4e+38 -3.4e+38 -3.4e+38 -3.4e+38 -3.4e+38 -3.4e+38 -3.4e+38 -3.4e+38 -3.4e+38 -3.4e+38 -3.4e+38 -3.4e+38 -3.4e+38 -3.4e+38 -3.4e+38 -3.4e+38 -3.4e+38 -3.4e+38 -3.4e+38 -3.4e+38 -3.4e+38 -3.4e+38 -3.4e+38 -3.4e+38 -3.4e+38 -3.4e+38 -3.4e+38 -3.4e+38 -3.4e+38 -3.4e+38 -3.4e+38
72.2563934326172 61.7236137390137 62.3967247009277 80.7394027709961 102.070175170898 83.6802978515625 70.221305847168 51.0400123596191 43.8904457092285 51.5404510498047 49.3254013061523 44.7089500427246 33.6352043151855 37.277904510498 26.6241016387939 1.68413305282593 4.93719100952148 6.02267503738403 6.65201282501221 5.97007274627686 6.24482345581055 8.23523426055908 17.5389156341553 19.9641056060791 23.8964233398438 31.0802097320557 37.294002532959 61.2104988098145 93.0186538696289 128.267013549805 143.381622314453 126.02806854248 97.764289855957 72.5233612060547 52.6893997192383 42.6351585388184 81.5685119628906 93.9236450195312 98.5582656860352 110.572929382324 116.22290802002 128.717559814453 127.682281494141 113.903587341309 126.922378540039 133.720138549805 128.623764038086 143.184310913086 126.016845703125 113.491508483887 122.399971008301 132.321487426758 149.008178710938 162.138809204102 161.658752441406 139.722747802734 152.004699707031 167.35725402832 148.819000244141 137.853668212891 154.606460571289 139.047637939453 142.564605712891 144.976455688477 157.670806884766 163.424011230469 169.956619262695 162.233032226562 150.219314575195 129.451553344727 104.89306640625 81.1492691040039 84.6293029785156 133.497619628906 166.307250976562 173.400833129883 173.07649230957 176.082382202148 178.056655883789 182.554351806641 188.799011230469 199.010726928711 206.695251464844 209.613525390625 206.21354675293 197.0927734375 179.294784545898 177.531585693359 182.266540527344 187.657455444336 197.859603881836 178.852874755859 148.444091796875 134.10661315918 151.585723876953 164.091110229492 170.41471862793 174.446304321289 175.82160949707 171.450592041016 173.623138427734 178.012908935547 181.344268798828 188.611572265625 195.116317749023 186.314498901367 198.279373168945 206.698104858398 205.069625854492 228.108688354492 228.225341796875 245.868499755859 260.537292480469 273.702667236328 291.416015625 308.368804931641 291.478149414062 290.010314941406 297.112548828125 316.469848632812 349.150207519531 335.640594482422 323.903381347656 299.714080810547 300.197631835938 326.871673583984 358.588684082031 352.265502929688 342.797027587891 352.958068847656 356.639770507812 341.008056640625 347.158355712891 345.923065185547 319.344665527344 300.511596679688 300.245208740234 304.086303710938 309.353179931641 312.530700683594 324.243499755859 308.053985595703 298.622283935547 305.160186767578 321.777313232422 345.560455322266 343.782135009766 330.046722412109 310.825744628906 303.226867675781 322.817291259766 344.904418945312 327.683776855469 302.154846191406 307.435028076172 -3.4e+38 -3.4e+38 -3.4e+38 -3.4e+38 -3.4e+38 -3.4e+38 -3.4e+38 -3.4e+38 -3.4e+38 -3.4e+38 -3.4e+38 -3.4e+38 -3.4e+38 -3.4e+38 -3.4e+38 -3.4e+38 -3.4e+38 -3.4e+38 -3.4e+38 -3.4e+38 -3.4e+38 -3.4e+38 -3.4e+38 -3.4e+38 -3.4e+38 -3.4e+38 -3.4e+38 -3.4e+38 -3.4e+38 -3.4e+38 -3.4e+38 -3.4e+38 -3.4e+38 -3.4e+38 -3.4e+38 -3.4e+38 -3.4e+38 -3.4e+38 -3.4e+38 -3.4e+38 -3.4e+38 -3.4e+38 -3.4e+38 -3.4e+38 -3.4e+38 -3.4e+38 -3.4e+38 -3.4e+38 -3.4e+38 -3.4e+38 -3.4e+38 -3.4e+38 -3.4e+38 -3.4e+38 -3.4e+38 -3.4e+38 -3.4e+38 -3.4e+38 -3.4e+38 -3.4e+38 -3.4e+38 -3.4e+38 -3.4e+38 -3.4e+38 -3.4e+38 -3.4e+38 -3.4e+38 -3.4e+38 -3.4e+38
70.2191467285156 57.651969909668 55.9002151489258 78.0771560668945 102.44987487793 86.8001174926758 81.0621948242188 60.2759284973145 48.759204864502 34.7892456054688 31.7185192108154 40.6281471252441 34.041145324707 22.8476886749268 17.7186603546143 2.61604642868042 5.04577445983887 5.78473281860352 5.65212154388428 4.78199052810669 9.0367956161499 18.4208335876465 24.47878074646 23.3637351989746 24.5442676544189 28.1784610748291 34.8889770507812 62.3717346191406 105.208839416504 142.529495239258 126.068725585938 113.117034912109 99.6097106933594 72.5219573974609 45.7022094726562 46.1551971435547 70.8159255981445 84.2450714111328 106.814552307129 104.117698669434 103.763801574707 118.477615356445 98.6887130737305 116.250030517578 134.692977905273 112.878707885742 123.027221679688 116.962249755859 107.056869506836 119.311584472656 141.951843261719 150.407119750977 158.554229736328 160.951110839844 142.615966796875 136.846954345703 164.77033996582 164.486038208008 137.995788574219 135.514984130859 136.654220581055 144.871200561523 167.259567260742 159.403991699219 164.305191040039 168.782745361328 160.421813964844 141.795349121094 141.177032470703 119.908554077148 89.3233337402344 75.3893432617188 109.9755859375 158.897125244141 174.147659301758 158.30046081543 161.125930786133 166.710159301758 164.450805664062 164.781509399414 164.459182739258 170.744338989258 175.243118286133 183.87580871582 187.257247924805 182.386047363281 174.539459228516 167.62028503418 182.414276123047 186.169326782227 181.120956420898 174.612655639648 149.001205444336 134.518951416016 158.728012084961 163.128936767578 161.133239746094 161.253402709961 165.183151245117 171.895599365234 180.448745727539 181.006942749023 184.084533691406 187.347213745117 186.290222167969 180.833465576172 194.030029296875 196.090713500977 207.967559814453 219.231506347656 216.164627075195 231.365097045898 254.244384765625 255.115737915039 278.45166015625 307.948272705078 280.818878173828 277.018310546875 296.142822265625 307.485412597656 349.79541015625 352.531860351562 330.809051513672 314.551422119141 288.527587890625 299.201538085938 314.821502685547 327.531005859375 323.216186523438 341.181396484375 351.118499755859 342.865295410156 321.649078369141 335.483123779297 339.815521240234 321.585174560547 306.327056884766 298.94921875 285.69482421875 282.370819091797 284.476745605469 293.017272949219 289.232238769531 300.070129394531 316.000061035156 327.925933837891 338.646514892578 352.047607421875 347.172576904297 318.453735351562 298.189056396484 291.296783447266 299.014129638672 283.884155273438 275.084869384766 -3.4e+38 -3.4e+38 -3.4e+38 -3.4e+38 -3.4e+38 -3.4e+38 -3.4e+38 -3.4e+38 -3.4e+38 -3.4e+38 -3.4e+38 -3.4e+38 -3.4e+38 -3.4e+38 -3.4e+38 -3.4e+38 -3.4e+38 -3.4e+38 -3.4e+38 -3.4e+38 -3.4e+38 -3.4e+38 -3.4e+38 -3.4e+38 -3.4e+38 -3.4e+38 -3.4e+38 -3.4e+38 -3.4e+38 -3.4e+38 -3.4e+38 -3.4e+38 -3.4e+38 -3.4e+38 -3.4e+38 -3.4e+38 -3.4e+38 -3.4e+38 -3.4e+38 -3.4e+38 -3.4e+38 -3.4e+38 -3.4e+38 -3.4e+38 -3.4e+38 -3.4e+38 -3.4e+38 -3.4e+38 -3.4e+38 -3.4e+38 -3.4e+38 -3.4e+38 -3.4e+38 -3.4e+38 -3.4e+38 -3.4e+38 -3.4e+38 -3.4e+38 -3.4e+38 -3.4e+38 -3.4e+38 -3.4e+38 -3.4e+38 -3.4e+38 -3.4e+38 -3.4e+38 -3.4e+38 -3.4e+38 -3.4e+38
75.7726287841797 65.7054214477539 51.310115814209 65.359748840332 94.8857955932617 107.511901855469 101.654998779297 79.1871719360352 60.6353378295898 43.2966957092285 32.1428260803223 19.5311450958252 21.8763084411621 15.5937070846558 8.32354640960693 3.14944982528687 5.10548686981201 5.86333179473877 4.60326719284058 7.30567264556885 16.6147708892822 24.664134979248 24.7460117340088 24.7719669342041 26.1093215942383 30.0516262054443 40.3243064880371 54.4981384277344 98.3686447143555 112.19905090332 90.9135894775391 88.2211685180664 78.5931091308594 59.9645004272461 33.710880279541 49.2618064880371 57.9040374755859 87.2832717895508 89.337776184082 90.3404159545898 111.654647827148 96.9409713745117 94.5258941650391 122.72631072998 105.315582275391 106.964462280273 106.66374206543 95.6858062744141 108.55933380127 121.920524597168 142.372634887695 144.098281860352 162.618545532227 146.341720581055 126.435478210449 144.628616333008 165.098419189453 161.786376953125 142.41682434082 121.572822570801 128.856842041016 150.836730957031 171.995895385742 172.861587524414 176.42170715332 167.075088500977 137.353149414062 123.381935119629 112.918670654297 99.6996459960938 77.5033187866211 94.4069747924805 137.035537719727 169.100738525391 154.271774291992 150.44677734375 168.533386230469 169.514266967773 161.033416748047 154.094177246094 160.142791748047 154.680053710938 156.842880249023 173.153335571289 173.353866577148 167.567993164062 165.336700439453 179.894500732422 186.911178588867 171.700866699219 146.2919921875 151.201400756836 137.024536132812 146.927093505859 157.336929321289 159.11897277832 179.447860717773 174.64990234375 175.057983398438 177.611297607422 183.631744384766 175.291854858398 175.269927978516 176.45637512207 174.051345825195 179.768264770508 190.142181396484 191.288330078125 203.773529052734 206.272247314453 212.168334960938 227.482055664062 237.989364624023 248.894683837891 258.927398681641 277.733123779297 269.001922607422 282.502593994141 297.744384765625 297.972625732422 320.2705078125 358.76611328125 348.434661865234 319.06689453125 290.169250488281 273.985748291016 289.031433105469 307.782897949219 301.046325683594 308.098846435547 326.060150146484 334.711090087891 314.049896240234 318.889770507812 337.166381835938 342.555541992188 318.251251220703 299.384674072266 298.138732910156 295.046722412109 280.538787841797 274.357299804688 280.695495605469 293.099853515625 300.198455810547 307.847198486328 312.735809326172 334.263000488281 356.791839599609 351.513488769531 335.498077392578 293.394592285156 279.489013671875 272.498321533203 -3.4e+38 -3.4e+38 -3.4e+38 -3.4e+38 -3.4e+38 -3.4e+38 -3.4e+38 -3.4e+38 -3.4e+38 -3.4e+38 -3.4e+38 -3.4e+38 -3.4e+38 -3.4e+38 -3.4e+38 -3.4e+38 -3.4e+38 -3.4e+38 -3.4e+38 -3.4e+38 -3.4e+38 -3.4e+38 -3.4e+38 -3.4e+38 -3.4e+38 -3.4e+38 -3.4e+38 -3.4e+38 -3.4e+38 -3.4e+38 -3.4e+38 -3.4e+38 -3.4e+38 -3.4e+38 -3.4e+38 -3.4e+38 -3.4e+38 -3.4e+38 -3.4e+38 -3.4e+38 -3.4e+38 -3.4e+38 -3.4e+38 -3.4e+38 -3.4e+38 -3.4e+38 -3.4e+38 -3.4e+38 -3.4e+38 -3.4e+38 -3.4e+38 -3.4e+38 -3.4e+38 -3.4e+38 -3.4e+38 -3.4e+38 -3.4e+38 -3.4e+38 -3.4e+38 -3.4e+38 -3.4e+38 -3.4e+38 -3.4e+38 -3.4e+38 -3.4e+38 -3.4e+38 -3.4e+38 -3.4e+38 -3.4e+38 -3.4e+38
77.3974456787109 76.0180511474609 77.8935317993164 58.1926956176758 70.1277618408203 96.1577072143555 104.892211914062 94.7271728515625 59.2383995056152 41.5619430541992 40.134407043457 31.9329147338867 18.740083694458 7.80942106246948 3.53229737281799 4.27582502365112 5.67098999023438 5.33068370819092 3.50207090377808 11.9442358016968 19.1189308166504 22.6867637634277 24.6546077728271 26.3879108428955 31.3728408813477 37.6737060546875 51.4777565002441 56.8127784729004 75.9732513427734 74.1215362548828 62.2412376403809 56.3699150085449 44.8500099182129 30.6770305633545 27.2924461364746 41.7624397277832 43.9985961914062 54.9863624572754 66.481575012207 89.0096130371094 97.3037948608398 75.3742828369141 78.6240921020508 86.0387191772461 83.7746429443359 89.6196594238281 89.5939254760742 105.92992401123 115.659484863281 115.517578125 124.515121459961 147.667785644531 158.853668212891 128.296157836914 136.155639648438 156.211410522461 154.096145629883 152.837554931641 126.740745544434 136.567398071289 141.355041503906 149.178192138672 169.301605224609 176.163421630859 176.601318359375 176.732879638672 155.772369384766 142.127029418945 103.377937316895 79.3792190551758 81.5746994018555 129.660079956055 160.866012573242 152.034866333008 133.640777587891 159.679824829102 170.30615234375 161.203918457031 155.958633422852 147.450408935547 158.881912231445 147.376617431641 160.061477661133 175.602203369141 167.594146728516 157.031005859375 166.347732543945 176.011276245117 185.388916015625 157.123062133789 130.548202514648 122.375595092773 136.386184692383 148.976455688477 156.463516235352 170.082977294922 165.855224609375 161.80500793457 163.143341064453 166.409713745117 173.527160644531 169.678955078125 186.035751342773 185.845733642578 183.023544311523 182.698959350586 184.805236816406 190.528396606445 198.759429931641 200.9677734375 213.852416992188 219.660583496094 227.247619628906 241.32014465332 243.347274780273 238.086166381836 247.714111328125 267.568389892578 277.559356689453 303.318481445312 324.100036621094 349.520233154297 359.546173095703 339.529663085938 302.089447021484 271.311737060547 272.575866699219 296.765075683594 281.032287597656 284.029235839844 313.62109375 327.313446044922 305.038818359375 314.7509765625 323.403503417969 339.235656738281 339.722991943359 320.647369384766 308.236999511719 297.259216308594 291.470733642578 275.926849365234 273.079742431641 281.989318847656 285.365234375 302.506530761719 318.009643554688 327.203826904297 335.426879882812 325.255157470703 332.248718261719 322.292419433594 292.525909423828 265.068664550781 -3.4e+38 -3.4e+38 -3.4e+38 -3.4e+38 -3.4e+38 -3.4e+38 -3.4e+38 -3.4e+38 -3.4e+38 -3.4e+38 -3.4e+38 -3.4e+38 -3.4e+38 -3.4e+38 -3.4e+38 -3.4e+38 -3.4e+38 -3.4e+38 -3.4e+38 -3.4e+38 -3.4e+38 -3.4e+38 -3.4e+38 -3.4e+38 -3.4e+38 -3.4e+38 -3.4e+38 -3.4e+38 -3.4e+38 -3.4e+38 -3.4e+38 -3.4e+38 -3.4e+38 -3.4e+38 -3.4e+38 -3.4e+38 -3.4e+38 -3.4e+38 -3.4e+38 -3.4e+38 -3.4e+38 -3.4e+38 -3.4e+38 -3.4e+38 -3.4e+38 -3.4e+38 -3.4e+38 -3.4e+38 -3.4e+38 -3.4e+38 -3.4e+38 -3.4e+38 -3.4e+38 -3.4e+38 -3.4e+38 -3.4e+38 -3.4e+38 -3.4e+38 -3.4e+38 -3.4e+38 -3.4e+38 -3.4e+38 -3.4e+38 -3.4e+38 -3.4e+38 -3.4e+38 -3.4e+38 -3.4e+38 -3.4e+38 -3.4e+38
80.6025924682617 77.7045669555664 78.2715759277344 89.1462554931641 50.9308395385742 69.5594787597656 81.8141250610352 81.6506958007812 57.0456123352051 39.5129814147949 32.236701965332 37.9649353027344 27.5060634613037 3.56796765327454 3.27916240692139 4.76248121261597 5.40818929672241 3.80902028083801 4.83672714233398 5.27283430099487 5.05269289016724 8.42391014099121 12.7055959701538 13.0987138748169 26.4629917144775 39.9932594299316 42.8052215576172 40.7453918457031 36.7695274353027 26.5781993865967 24.42067527771 24.6210441589355 26.3657932281494 33.698413848877 65.0383529663086 78.5803680419922 83.9088821411133 64.0031204223633 51.9645042419434 60.8369560241699 68.2914657592773 77.0600433349609 90.7285079956055 96.8352890014648 103.770172119141 103.571006774902 109.099227905273 106.661201477051 114.479118347168 131.109161376953 141.726593017578 153.204345703125 140.158767700195 118.453147888184 140.262023925781 140.931945800781 141.420318603516 135.345809936523 125.00129699707 148.792495727539 153.691162109375 152.982147216797 166.379135131836 153.755706787109 146.598983764648 154.032821655273 161.426208496094 140.020385742188 91.2605819702148 75.3764114379883 114.97932434082 142.979400634766 157.942001342773 125.665191650391 142.919998168945 162.437469482422 160.517486572266 148.935592651367 146.717346191406 137.927368164062 144.253555297852 158.502792358398 168.502853393555 159.843627929688 152.823318481445 157.416793823242 162.110687255859 182.052719116211 178.393661499023 141.112838745117 120.710662841797 125.955467224121 131.487121582031 137.756057739258 148.847274780273 149.044067382812 142.772705078125 141.87646484375 146.117660522461 157.519638061523 164.422790527344 178.306900024414 186.205551147461 192.555374145508 196.458404541016 196.939926147461 197.688995361328 204.793899536133 207.657775878906 209.047698974609 212.205535888672 209.936080932617 229.768325805664 220.420669555664 223.028427124023 224.217330932617 239.350296020508 249.840148925781 263.656951904297 287.5859375 307.654541015625 328.762817382812 347.102874755859 349.279266357422 324.671081542969 289.292236328125 262.28759765625 261.586090087891 268.709503173828 295.504272460938 314.731994628906 310.466033935547 298.533325195312 300.180145263672 318.972473144531 323.738464355469 341.343444824219 344.020324707031 316.590515136719 305.515106201172 309.364074707031 295.981842041016 271.957122802734 265.756561279297 280.283264160156 293.972808837891 309.895721435547 309.742797851562 314.933410644531 300.809967041016 308.549255371094 309.101257324219 306.284881591797 277.112396240234 -3.4e+38 -3.4e+38 -3.4e+38 -3.4e+38 -3.4e+38 -3.4e+38 238.235885620117 235.847747802734 227.877532958984 212.789794921875 221.859237670898 -3.4e+38 -3.4e+38 -3.4e+38 -3.4e+38 -3.4e+38 -3.4e+38 -3.4e+38 -3.4e+38 -3.4e+38 -3.4e+38 -3.4e+38 -3.4e+38 -3.4e+38 -3.4e+38 -3.4e+38 -3.4e+38 -3.4e+38 -3.4e+38 -3.4e+38 -3.4e+38 -3.4e+38 -3.4e+38 -3.4e+38 -3.4e+38 -3.4e+38 -3.4e+38 -3.4e+38 -3.4e+38 -3.4e+38 -3.4e+38 -3.4e+38 -3.4e+38 -3.4e+38 -3.4e+38 -3.4e+38 -3.4e+38 -3.4e+38 -3.4e+38 -3.4e+38 -3.4e+38 -3.4e+38 -3.4e+38 -3.4e+38 -3.4e+38 -3.4e+38 -3.4e+38 -3.4e+38 -3.4e+38 -3.4e+38 -3.4e+38 -3.4e+38 -3.4e+38 -3.4e+38 -3.4e+38 -3.4e+38 -3.4e+38 -3.4e+38 -3.4e+38 -3.4e+38
85.679328918457 80.7004089355469 67.0810699462891 90.5506973266602 84.3063583374023 48.4623680114746 42.3556175231934 49.6262969970703 47.7517929077148 33.0265579223633 26.4502563476562 23.5741577148438 8.75590133666992 2.33535814285278 3.86898612976074 5.12568473815918 3.29354786872864 4.34725856781006 10.4803018569946 7.28860187530518 5.21863079071045 9.57342720031738 8.56700611114502 6.28044176101685 5.3828182220459 7.29718208312988 11.6669759750366 16.1392269134521 20.0048446655273 32.6732177734375 51.073902130127 66.7167434692383 78.1908264160156 90.2277679443359 98.3305740356445 99.3274078369141 106.13655090332 88.803596496582 87.525260925293 95.1093063354492 106.817749023438 122.103187561035 134.273101806641 132.472457885742 126.273056030273 117.078407287598 126.258773803711 124.584465026855 117.400367736816 130.260711669922 152.501205444336 139.236999511719 119.698799133301 116.196327209473 139.577819824219 123.864440917969 122.540878295898 120.034286499023 136.245651245117 145.676803588867 152.141036987305 160.711944580078 166.131225585938 158.146896362305 132.879455566406 124.656677246094 128.487579345703 97.7259063720703 77.1972427368164 77.5933685302734 106.175117492676 122.849914550781 132.038482666016 127.409118652344 156.545349121094 148.762634277344 138.342971801758 130.002716064453 134.968322753906 141.694808959961 152.05810546875 160.028060913086 157.475067138672 153.340896606445 159.895370483398 176.815948486328 179.934066772461 184.156387329102 161.160720825195 131.006744384766 130.144165039062 145.232070922852 152.724227905273 156.657745361328 157.134048461914 171.951156616211 168.309768676758 160.727996826172 162.03938293457 159.422805786133 184.521560668945 207.543975830078 205.229064941406 193.159774780273 196.976379394531 206.3896484375 209.033630371094 212.724639892578 219.096588134766 219.788360595703 209.307632446289 210.183288574219 209.584396362305 207.990249633789 216.571212768555 226.102493286133 235.839569091797 248.207290649414 248.889633178711 270.628326416016 315.551544189453 317.191833496094 310.927520751953 327.179870605469 343.083068847656 312.936187744141 288.096832275391 251.790954589844 262.157653808594 294.089508056641 300.707305908203 296.796752929688 279.296905517578 306.995147705078 297.475677490234 300.351409912109 328.665771484375 344.958709716797 336.954040527344 325.494445800781 317.140350341797 299.698120117188 283.348358154297 262.305786132812 260.387908935547 278.423309326172 298.153381347656 294.870422363281 302.109527587891 296.862457275391 290.021118164062 289.960174560547 284.612518310547 284.232727050781 266.504180908203 245.164703369141 246.883819580078 -3.4e+38 254.400924682617 249.019912719727 235.508224487305 222.255981445312 222.713745117188 210.868850708008 212.374710083008 221.24494934082 224.712448120117 -3.4e+38 -3.4e+38 -3.4e+38 -3.4e+38 -3.4e+38 -3.4e+38 -3.4e+38 -3.4e+38 -3.4e+38 -3.4e+38 -3.4e+38 -3.4e+38 -3.4e+38 -3.4e+38 -3.4e+38 -3.4e+38 -3.4e+38 -3.4e+38 -3.4e+38 -3.4e+38 -3.4e+38 -3.4e+38 -3.4e+38 -3.4e+38 -3.4e+38 -3.4e+38 -3.4e+38 -3.4e+38 -3.4e+38 -3.4e+38 -3.4e+38 -3.4e+38 -3.4e+38 -3.4e+38 -3.4e+38 -3.4e+38 -3.4e+38 -3.4e+38 -3.4e+38 -3.4e+38 -3.4e+38 -3.4e+38 -3.4e+38 -3.4e+38 -3.4e+38 -3.4e+38 -3.4e+38 -3.4e+38 -3.4e+38 -3.4e+38 -3.4e+38 -3.4e+38 -3.4e+38 -3.4e+38 -3.4e+38 -3.4e+38 -3.4e+38
71.3332901000977 71.8809356689453 58.3628005981445 56.8549880981445 72.5540924072266 57.6953201293945 23.9873523712158 30.4821739196777 33.2068977355957 20.5847053527832 17.3957386016846 5.73880290985107 2.32407593727112 3.70970749855042 4.58086585998535 4.1059741973877 3.5169997215271 11.0274801254272 19.3567752838135 23.3655319213867 9.16349315643311 19.1414604187012 30.0002841949463 39.0010147094727 20.3920555114746 30.4130744934082 49.2146263122559 45.7035675048828 60.936653137207 80.3279800415039 81.4503784179688 86.9229888916016 91.6341400146484 97.1414337158203 99.4086151123047 93.1354598999023 97.7794036865234 100.26579284668 105.724182128906 111.73363494873 118.27668762207 129.459365844727 140.792861938477 138.892700195312 147.082702636719 142.690643310547 144.677459716797 146.688919067383 135.377410888672 143.374450683594 151.63996887207 141.466018676758 116.96565246582 112.958656311035 115.706077575684 115.984382629395 124.267112731934 135.977523803711 145.790252685547 145.869094848633 147.472198486328 149.951293945312 155.782348632812 147.170516967773 120.891441345215 104.933074951172 111.912399291992 84.5155410766602 75.1186065673828 101.093048095703 98.6792984008789 93.204216003418 96.0494613647461 129.020919799805 143.300323486328 133.184188842773 133.046340942383 128.358795166016 126.610214233398 133.606643676758 138.695770263672 134.714996337891 151.040115356445 163.280990600586 167.807479858398 176.682525634766 190.570495605469 180.109237670898 149.119064331055 134.060974121094 138.029724121094 154.99040222168 162.228057861328 175.109481811523 182.07731628418 182.819610595703 182.655059814453 177.310089111328 176.831405639648 175.297241210938 184.665420532227 199.258972167969 208.780136108398 203.709686279297 209.550369262695 223.592254638672 230.328247070312 222.253814697266 229.025634765625 220.806442260742 200.639892578125 198.188354492188 195.467483520508 204.623794555664 221.951370239258 226.780090332031 233.869384765625 227.653823852539 238.440170288086 250.637664794922 287.751098632812 313.599060058594 288.587127685547 318.020050048828 338.603485107422 320.869598388672 306.021057128906 280.008392333984 253.384490966797 267.283935546875 272.617828369141 268.2392578125 281.862579345703 299.880004882812 284.204986572266 295.640472412109 313.178558349609 320.252471923828 323.936950683594 309.599609375 303.435302734375 298.812469482422 280.319030761719 265.040405273438 249.108352661133 266.186676025391 283.826690673828 283.681182861328 287.248413085938 295.317657470703 292.450439453125 279.538543701172 275.776458740234 269.798889160156 262.565399169922 264.402984619141 249.281692504883 234.736663818359 230.3056640625 228.842239379883 222.947326660156 221.813003540039 213.060668945312 208.410552978516 203.826400756836 213.87663269043 216.110809326172 219.357543945312 -3.4e+38 -3.4e+38 -3.4e+38 -3.4e+38 -3.4e+38 -3.4e+38 -3.4e+38 -3.4e+38 -3.4e+38 -3.4e+38 -3.4e+38 -3.4e+38 -3.4e+38 -3.4e+38 -3.4e+38 -3.4e+38 -3.4e+38 -3.4e+38 -3.4e+38 -3.4e+38 -3.4e+38 -3.4e+38 -3.4e+38 -3.4e+38 -3.4e+38 -3.4e+38 -3.4e+38 -3.4e+38 -3.4e+38 -3.4e+38 -3.4e+38 -3.4e+38 -3.4e+38 -3.4e+38 -3.4e+38 -3.4e+38 -3.4e+38 -3.4e+38 -3.4e+38 -3.4e+38 -3.4e+38 -3.4e+38 -3.4e+38 -3.4e+38 -3.4e+38 -3.4e+38 -3.4e+38 -3.4e+38 -3.4e+38 -3.4e+38 -3.4e+38 -3.4e+38 -3.4e+38 -3.4e+38 -3.4e+38 -3.4e+38
65.2889022827148 90.7294082641602 86.1896896362305 45.8894882202148 61.4739379882812 61.0342788696289 24.5128631591797 10.910099029541 16.4038543701172 4.43191432952881 2.97073602676392 2.99370503425598 3.67949891090393 4.37078523635864 5.07292413711548 2.47362899780273 7.21566104888916 19.1448040008545 21.2354106903076 23.4338264465332 15.2032146453857 21.2695236206055 37.8900909423828 47.122615814209 39.5206146240234 21.2379131317139 47.9424591064453 66.6675186157227 71.868896484375 82.5840682983398 74.3169174194336 75.1554718017578 82.7311019897461 92.0149917602539 84.3720245361328 85.8909378051758 89.6971664428711 99.9739379882812 106.386184692383 113.218864440918 118.770797729492 119.28768157959 107.929542541504 116.384635925293 129.345809936523 128.602340698242 144.88232421875 151.892807006836 143.117385864258 135.438095092773 133.139984130859 130.829727172852 107.18236541748 95.4641036987305 110.14697265625 127.052978515625 127.242980957031 128.902435302734 130.177032470703 134.918594360352 144.55680847168 154.155044555664 156.440582275391 148.897644042969 143.082138061523 117.04997253418 88.31591796875 75.3356704711914 93.4306335449219 125.91805267334 137.31591796875 130.198760986328 120.362823486328 103.362754821777 119.684158325195 158.742126464844 175.598754882812 171.178680419922 156.311141967773 146.695755004883 155.787887573242 146.89582824707 157.660781860352 168.801239013672 177.555038452148 186.960235595703 188.798248291016 183.104858398438 152.743576049805 132.677780151367 149.23127746582 157.187683105469 163.956115722656 170.978530883789 172.185806274414 170.290222167969 172.124649047852 183.829528808594 195.389633178711 189.133392333984 190.35009765625 197.957656860352 207.263137817383 209.838928222656 211.023651123047 218.129577636719 227.719757080078 230.634582519531 225.932571411133 228.241134643555 212.770050048828 189.841110229492 198.669876098633 213.453628540039 219.967590332031 225.789184570312 218.9072265625 213.638854980469 222.297225952148 231.234161376953 263.889556884766 279.081146240234 274.014709472656 298.975006103516 328.694732666016 322.374908447266 304.800445556641 294.369750976562 255.716110229492 255.093383789062 258.758270263672 263.995819091797 275.092895507812 270.128845214844 273.361297607422 286.880889892578 297.026336669922 314.744140625 318.237915039062 309.269195556641 298.819427490234 291.769561767578 293.575439453125 262.318023681641 252.910369873047 284.075927734375 274.069030761719 261.877532958984 273.691589355469 292.88720703125 299.747436523438 285.038787841797 271.852203369141 269.908843994141 272.029174804688 273.284362792969 264.000854492188 267.511138916016 252.817077636719 240.781356811523 234.840621948242 240.955703735352 225.084320068359 228.344848632812 207.744567871094 202.273773193359 208.694107055664 211.574676513672 214.058792114258 -3.4e+38 -3.4e+38 -3.4e+38 -3.4e+38 -3.4e+38 -3.4e+38 -3.4e+38 -3.4e+38 -3.4e+38 -3.4e+38 -3.4e+38 -3.4e+38 -3.4e+38 -3.4e+38 -3.4e+38 -3.4e+38 -3.4e+38 -3.4e+38 -3.4e+38 -3.4e+38 -3.4e+38 -3.4e+38 -3.4e+38 -3.4e+38 -3.4e+38 -3.4e+38 -3.4e+38 -3.4e+38 -3.4e+38 -3.4e+38 -3.4e+38 -3.4e+38 -3.4e+38 -3.4e+38 -3.4e+38 -3.4e+38 -3.4e+38 -3.4e+38 -3.4e+38 -3.4e+38 -3.4e+38 -3.4e+38 -3.4e+38 -3.4e+38 -3.4e+38 -3.4e+38 -3.4e+38 -3.4e+38 -3.4e+38 -3.4e+38 -3.4e+38 -3.4e+38 -3.4e+38 -3.4e+38 -3.4e+38
62.0166435241699 82.3414840698242 81.8566970825195 46.6783180236816 36.4924430847168 44.6331634521484 8.08893585205078 4.07490730285645 3.35540175437927 3.94151663780212 3.5016553401947 3.87477850914001 4.76892900466919 5.78757047653198 3.14555549621582 5.04278182983398 16.0561351776123 24.7487964630127 28.057804107666 25.1648502349854 21.9671096801758 20.1582069396973 39.3899574279785 47.1893882751465 49.2651405334473 33.4650344848633 25.7018241882324 63.2813720703125 82.559944152832 77.8050384521484 63.6480293273926 81.0477752685547 75.9682006835938 71.6418762207031 72.8568115234375 81.1665267944336 95.4820327758789 104.504341125488 107.342666625977 108.994102478027 104.112892150879 95.0417327880859 102.636383056641 107.078308105469 121.924034118652 139.187484741211 143.744934082031 142.765823364258 129.249588012695 127.879249572754 115.52409362793 103.243064880371 96.6171188354492 118.395050048828 120.128433227539 125.829780578613 146.180419921875 162.305923461914 169.464767456055 168.524230957031 189.3984375 192.345138549805 169.795593261719 191.50456237793 187.035278320312 143.507751464844 89.5465469360352 79.9185409545898 114.763381958008 137.19059753418 151.408462524414 151.36376953125 147.498794555664 136.710266113281 111.677909851074 135.969345092773 158.343139648438 164.599426269531 170.523315429688 167.854797363281 170.305755615234 161.812637329102 170.392303466797 176.653915405273 181.47265625 184.001586914062 174.497253417969 167.385620117188 151.273391723633 133.187194824219 150.516098022461 163.808532714844 169.539093017578 165.08952331543 160.900772094727 161.844375610352 163.457717895508 175.173095703125 186.188766479492 185.907363891602 185.491317749023 195.431259155273 198.864624023438 200.975006103516 202.416549682617 201.551254272461 211.940567016602 221.407974243164 214.592681884766 212.116439819336 203.704315185547 184.391098022461 195.813766479492 195.129379272461 200.724365234375 209.772125244141 209.70622253418 204.421188354492 205.920364379883 225.188842773438 241.717849731445 256.235076904297 265.708923339844 286.902465820312 305.511901855469 327.027374267578 304.326751708984 280.490753173828 264.722137451172 246.684982299805 247.532608032227 254.300109863281 255.917098999023 272.3671875 292.051696777344 299.196746826172 313.694427490234 312.715301513672 308.260986328125 307.641357421875 286.717803955078 277.048614501953 301.254272460938 285.625579833984 254.091323852539 263.262420654297 258.269805908203 262.93505859375 268.767547607422 288.768981933594 301.575958251953 292.392608642578 288.172027587891 286.278594970703 292.731262207031 285.633697509766 284.005279541016 291.011596679688 283.587188720703 268.974853515625 253.03630065918 252.748764038086 241.102691650391 237.309295654297 223.830673217773 201.878341674805 200.690841674805 204.215393066406 207.060607910156 -3.4e+38 -3.4e+38 -3.4e+38 -3.4e+38 -3.4e+38 -3.4e+38 -3.4e+38 -3.4e+38 -3.4e+38 -3.4e+38 -3.4e+38 -3.4e+38 -3.4e+38 -3.4e+38 -3.4e+38 -3.4e+38 -3.4e+38 -3.4e+38 -3.4e+38 -3.4e+38 -3.4e+38 -3.4e+38 -3.4e+38 -3.4e+38 -3.4e+38 -3.4e+38 -3.4e+38 -3.4e+38 -3.4e+38 -3.4e+38 -3.4e+38 -3.4e+38 -3.4e+38 -3.4e+38 -3.4e+38 -3.4e+38 -3.4e+38 -3.4e+38 -3.4e+38 -3.4e+38 -3.4e+38 -3.4e+38 -3.4e+38 -3.4e+38 -3.4e+38 -3.4e+38 -3.4e+38 -3.4e+38 -3.4e+38 -3.4e+38 -3.4e+38 -3.4e+38 -3.4e+38 -3.4e+38 -3.4e+38
84.573600769043 57.9396629333496 43.1116180419922 40.9240112304688 11.4754028320312 7.69536066055298 2.54657530784607 4.22285747528076 4.79380512237549 4.3113226890564 4.53693771362305 4.95420837402344 5.61645793914795 4.24210262298584 1.30920684337616 11.6695928573608 27.9154758453369 28.3087043762207 28.2210006713867 31.2257499694824 29.2863807678223 27.721700668335 37.3958587646484 47.8269157409668 52.7112350463867 54.0076332092285 35.1874351501465 30.4417552947998 48.7709007263184 68.1119384765625 52.754280090332 57.7083854675293 57.5037689208984 58.0466499328613 76.2909698486328 86.5029754638672 82.6291732788086 88.1837768554688 93.407470703125 88.6340942382812 91.3067626953125 112.957763671875 117.192031860352 124.556785583496 139.626770019531 156.775894165039 146.387985229492 127.568588256836 114.576026916504 122.815528869629 113.298889160156 93.0228576660156 110.243141174316 127.468338012695 147.393676757812 137.336364746094 126.248359680176 175.005523681641 196.917251586914 179.054626464844 186.324142456055 188.530120849609 175.253662109375 204.436309814453 179.565841674805 117.895683288574 81.3947067260742 105.312538146973 117.753135681152 133.936676025391 138.694259643555 146.370254516602 149.329528808594 147.611434936523 135.911483764648 133.269622802734 141.611068725586 150.522277832031 161.111633300781 169.526275634766 175.00114440918 178.91796875 177.954986572266 178.322708129883 173.066116333008 163.175918579102 158.862747192383 153.532470703125 137.729064941406 139.717071533203 167.058868408203 169.806915283203 165.007659912109 157.608657836914 153.893997192383 151.062484741211 153.589279174805 160.338928222656 165.417556762695 172.720413208008 184.980743408203 195.748901367188 191.77766418457 195.255065917969 204.961654663086 193.713012695312 191.486755371094 194.720596313477 200.659393310547 193.144012451172 195.485916137695 199.859313964844 184.527297973633 181.832138061523 187.962280273438 195.495651245117 204.303558349609 199.520599365234 208.13703918457 216.292068481445 232.804916381836 244.272506713867 264.076812744141 274.541656494141 292.390472412109 328.791809082031 328.605712890625 274.162780761719 247.535781860352 248.86701965332 261.629730224609 268.904876708984 285.883117675781 289.139038085938 291.929168701172 308.285034179688 314.129211425781 304.345642089844 294.347259521484 296.352996826172 276.923736572266 268.299865722656 277.561096191406 271.480224609375 269.406036376953 243.245559692383 251.531265258789 262.244415283203 258.696166992188 264.744415283203 279.032135009766 284.181335449219 298.953216552734 297.063903808594 301.023315429688 286.565979003906 286.162841796875 295.206359863281 295.693450927734 284.338165283203 284.70751953125 267.65283203125 257.330688476562 239.512710571289 237.217514038086 210.531723022461 194.795394897461 199.307907104492 200.748123168945 203.636123657227 -3.4e+38 -3.4e+38 -3.4e+38 -3.4e+38 -3.4e+38 -3.4e+38 -3.4e+38 -3.4e+38 -3.4e+38 -3.4e+38 -3.4e+38 -3.4e+38 -3.4e+38 -3.4e+38 -3.4e+38 -3.4e+38 -3.4e+38 -3.4e+38 -3.4e+38 -3.4e+38 -3.4e+38 -3.4e+38 -3.4e+38 -3.4e+38 -3.4e+38 -3.4e+38 -3.4e+38 -3.4e+38 -3.4e+38 -3.4e+38 -3.4e+38 -3.4e+38 -3.4e+38 -3.4e+38 -3.4e+38 -3.4e+38 -3.4e+38 -3.4e+38 -3.4e+38 -3.4e+38 -3.4e+38 -3.4e+38 -3.4e+38 -3.4e+38 -3.4e+38 -3.4e+38 -3.4e+38 -3.4e+38 -3.4e+38 -3.4e+38 -3.4e+38 -3.4e+38 -3.4e+38 -3.4e+38
83.5642166137695 45.5569190979004 14.7888927459717 6.18118047714233 2.3064112663269 2.45360088348389 3.64519000053406 4.17035722732544 4.39997005462646 4.82998037338257 4.57249593734741 3.32887196540833 2.92586469650269 2.95991992950439 4.60617733001709 15.1934947967529 26.3114452362061 26.7632751464844 27.6096782684326 30.0311050415039 31.3394088745117 32.861701965332 42.2808036804199 47.8248634338379 51.5335578918457 57.1702041625977 57.3610420227051 62.8996086120605 44.3531837463379 38.4032707214355 42.3575439453125 58.7302169799805 55.3181228637695 65.2891845703125 64.0691909790039 62.974193572998 66.0263290405273 77.1965026855469 82.7857666015625 94.4956436157227 101.354537963867 110.71703338623 122.079521179199 135.802169799805 151.4365234375 142.618148803711 143.698013305664 138.186004638672 118.897193908691 105.203521728516 97.3943328857422 104.295890808105 129.671142578125 128.856582641602 142.899810791016 126.372123718262 92.6516647338867 110.735794067383 134.122741699219 126.390769958496 141.015014648438 151.494140625 157.154571533203 171.885467529297 144.638381958008 86.2711029052734 80.6700057983398 102.995948791504 105.838325500488 105.033836364746 124.61515045166 138.606887817383 138.746643066406 152.223922729492 157.533157348633 157.978073120117 164.330718994141 169.165954589844 172.624969482422 178.874542236328 183.782852172852 186.058776855469 180.632110595703 169.768661499023 151.699279785156 140.719787597656 143.622787475586 140.299118041992 132.023468017578 147.733367919922 158.396636962891 145.433547973633 144.317687988281 143.418380737305 134.526962280273 145.103210449219 155.773910522461 163.482376098633 163.063201904297 179.029937744141 191.531982421875 192.301391601562 176.103317260742 182.84294128418 192.383529663086 180.00666809082 172.478103637695 195.735107421875 221.627349853516 214.959579467773 230.990447998047 227.965591430664 201.984619140625 201.179870605469 199.003646850586 189.247543334961 191.005889892578 194.76692199707 199.279983520508 203.267929077148 228.596435546875 246.031341552734 255.536880493164 258.524444580078 275.804046630859 297.169464111328 307.070922851562 263.748504638672 239.231643676758 266.301605224609 285.840881347656 286.644958496094 297.890197753906 306.458404541016 303.844268798828 311.794281005859 300.403533935547 290.724731445312 277.853607177734 275.048217773438 270.89599609375 258.019958496094 252.532684326172 247.910598754883 244.480850219727 238.837265014648 234.905502319336 242.396026611328 250.52082824707 250.029113769531 253.101333618164 276.676300048828 287.03173828125 283.973510742188 286.983306884766 266.455932617188 272.263092041016 289.081817626953 307.454406738281 310.443328857422 304.855621337891 297.928436279297 270.333770751953 252.534606933594 252.666351318359 227.480895996094 208.935073852539 194.006561279297 197.127502441406 198.333465576172 -3.4e+38 -3.4e+38 -3.4e+38 -3.4e+38 -3.4e+38 -3.4e+38 -3.4e+38 -3.4e+38 -3.4e+38 -3.4e+38 -3.4e+38 -3.4e+38 -3.4e+38 -3.4e+38 -3.4e+38 -3.4e+38 -3.4e+38 -3.4e+38 -3.4e+38 -3.4e+38 -3.4e+38 -3.4e+38 -3.4e+38 -3.4e+38 -3.4e+38 -3.4e+38 -3.4e+38 -3.4e+38 -3.4e+38 -3.4e+38 -3.4e+38 -3.4e+38 -3.4e+38 -3.4e+38 -3.4e+38 -3.4e+38 -3.4e+38 -3.4e+38 -3.4e+38 -3.4e+38 -3.4e+38 -3.4e+38 -3.4e+38 -3.4e+38 -3.4e+38 -3.4e+38 -3.4e+38 -3.4e+38 -3.4e+38 -3.4e+38 -3.4e+38 -3.4e+38 -3.4e+38 -3.4e+38
43.1812133789062 7.90363454818726 3.63814520835876 1.83747363090515 2.31625962257385 3.08485960960388 3.16773819923401 3.55640149116516 3.65663504600525 4.75182056427002 2.82825398445129 2.57313799858093 3.54990434646606 3.84461688995361 2.86531472206116 12.7244644165039 23.7657661437988 23.3371772766113 27.1503143310547 31.2076683044434 32.596794128418 36.4661331176758 46.0453872680664 46.8703346252441 50.3847007751465 63.3107376098633 74.4531860351562 72.8434677124023 78.063606262207 55.6297721862793 66.5907287597656 87.6475448608398 73.331916809082 83.9702682495117 84.3615264892578 75.9567718505859 73.4264602661133 86.0693817138672 97.465202331543 107.082054138184 115.476707458496 122.586166381836 134.410598754883 146.578567504883 141.492126464844 130.697540283203 126.078048706055 129.864532470703 122.368614196777 97.6692276000977 86.1724166870117 118.571319580078 143.134643554688 144.242904663086 130.725875854492 107.707977294922 96.2203369140625 83.0178146362305 91.6998901367188 86.9191436767578 95.0940322875977 87.4740447998047 99.4312133789062 96.2465057373047 72.9605331420898 83.1823654174805 102.738388061523 93.6067886352539 84.3006362915039 94.2821655273438 110.591888427734 123.852989196777 146.116744995117 150.851837158203 152.570541381836 155.39973449707 166.928436279297 170.614334106445 176.269882202148 177.073776245117 184.835296630859 188.201644897461 175.896286010742 153.808135986328 138.946243286133 125.545738220215 118.719123840332 133.032211303711 156.280899047852 165.221450805664 170.931198120117 177.370300292969 183.274291992188 180.088760375977 156.32958984375 154.149505615234 143.369018554688 142.246200561523 149.985717773438 166.548721313477 180.076919555664 176.446472167969 162.275802612305 159.806838989258 166.230163574219 167.702453613281 176.231307983398 201.069976806641 221.654312133789 235.659271240234 237.893005371094 229.345703125 221.395797729492 232.597869873047 220.602966308594 194.965484619141 202.679626464844 196.991149902344 201.982925415039 207.280853271484 224.163009643555 229.576477050781 238.234603881836 248.23616027832 260.552642822266 269.323486328125 261.025177001953 237.798049926758 259.068939208984 269.927185058594 270.229644775391 270.843566894531 282.939178466797 289.822601318359 302.992828369141 314.540374755859 296.170593261719 284.002136230469 271.427001953125 264.255035400391 261.163391113281 253.148086547852 251.140182495117 252.665161132812 251.938049316406 247.12922668457 236.378890991211 229.990463256836 231.7998046875 242.802032470703 246.658432006836 267.124908447266 268.786743164062 273.754577636719 274.437072753906 256.794189453125 285.400970458984 301.289794921875 307.842742919922 316.438568115234 313.844512939453 291.927734375 275.204437255859 261.651580810547 269.520141601562 244.443649291992 231.314346313477 196.325073242188 190.409042358398 194.742370605469 -3.4e+38 -3.4e+38 -3.4e+38 -3.4e+38 -3.4e+38 -3.4e+38 -3.4e+38 -3.4e+38 -3.4e+38 -3.4e+38 -3.4e+38 -3.4e+38 -3.4e+38 -3.4e+38 -3.4e+38 -3.4e+38 -3.4e+38 -3.4e+38 -3.4e+38 -3.4e+38 -3.4e+38 -3.4e+38 -3.4e+38 -3.4e+38 -3.4e+38 -3.4e+38 -3.4e+38 -3.4e+38 -3.4e+38 -3.4e+38 -3.4e+38 -3.4e+38 -3.4e+38 -3.4e+38 -3.4e+38 -3.4e+38 -3.4e+38 -3.4e+38 -3.4e+38 -3.4e+38 -3.4e+38 -3.4e+38 -3.4e+38 -3.4e+38 -3.4e+38 -3.4e+38 -3.4e+38 -3.4e+38 -3.4e+38 -3.4e+38 -3.4e+38 -3.4e+38 -3.4e+38 -3.4e+38
8.98330402374268 2.680828332901 2.82290101051331 3.32636713981628 3.71205949783325 4.34686613082886 3.45010876655579 3.79676389694214 3.75327849388123 3.31551909446716 2.80772137641907 3.94133925437927 1.66133213043213 6.34820508956909 3.98401117324829 0.950980246067047 10.1775999069214 16.3803768157959 24.4965553283691 30.5589351654053 35.1776695251465 43.0268974304199 47.5152740478516 47.7983551025391 59.4627838134766 74.1417922973633 79.705322265625 83.5943603515625 83.1017684936523 82.3006896972656 78.9391403198242 96.813720703125 85.8486404418945 90.0517578125 94.0996780395508 95.9101638793945 91.90478515625 86.2613830566406 96.2960052490234 104.099761962891 117.279342651367 130.172378540039 143.382263183594 137.96907043457 119.112236022949 112.237197875977 117.348251342773 117.231170654297 107.731544494629 81.1141815185547 102.731887817383 118.566787719727 133.113067626953 120.625045776367 112.376304626465 104.758491516113 92.9021148681641 78.4440155029297 83.8418350219727 79.7462768554688 77.6415328979492 57.3690414428711 52.6722640991211 58.0383567810059 63.9255027770996 90.3690185546875 119.852157592773 117.736946105957 99.4231109619141 92.22509765625 99.7006607055664 126.870391845703 140.863586425781 130.218460083008 134.675186157227 154.563934326172 158.424499511719 160.870849609375 166.803848266602 173.943222045898 183.276824951172 181.529312133789 172.607864379883 164.034927368164 133.163909912109 125.580711364746 131.808212280273 146.571975708008 170.305511474609 174.990570068359 194.012298583984 207.788345336914 207.867538452148 193.253753662109 195.402862548828 188.126708984375 170.556533813477 144.533828735352 136.988418579102 140.851211547852 154.024154663086 155.296539306641 161.747192382812 182.909072875977 191.593536376953 200.356185913086 191.740707397461 194.199813842773 217.999542236328 233.679061889648 246.194381713867 242.654052734375 231.460815429688 239.486572265625 220.143814086914 197.848754882812 206.536972045898 212.623275756836 214.739471435547 227.599945068359 209.118621826172 222.241012573242 219.321655273438 226.435165405273 243.801162719727 241.746337890625 236.375717163086 236.268371582031 246.28791809082 248.354934692383 250.862197875977 269.033355712891 284.117309570312 294.442565917969 304.028411865234 302.187530517578 286.948699951172 280.8212890625 271.522033691406 270.256042480469 261.639068603516 260.549835205078 261.285949707031 262.834259033203 263.087310791016 253.061737060547 248.951217651367 256.793029785156 243.186325073242 227.307601928711 239.316879272461 258.800323486328 252.7734375 259.641387939453 255.209167480469 248.59162902832 276.385131835938 295.687377929688 307.1328125 317.349273681641 321.456634521484 306.315490722656 285.43017578125 278.691131591797 272.570587158203 241.606719970703 225.537750244141 203.021194458008 189.889709472656 188.132080078125 -3.4e+38 -3.4e+38 -3.4e+38 -3.4e+38 -3.4e+38 -3.4e+38 -3.4e+38 -3.4e+38 -3.4e+38 -3.4e+38 -3.4e+38 -3.4e+38 -3.4e+38 -3.4e+38 -3.4e+38 -3.4e+38 -3.4e+38 -3.4e+38 -3.4e+38 -3.4e+38 -3.4e+38 -3.4e+38 -3.4e+38 -3.4e+38 -3.4e+38 -3.4e+38 -3.4e+38 -3.4e+38 -3.4e+38 -3.4e+38 -3.4e+38 -3.4e+38 -3.4e+38 -3.4e+38 -3.4e+38 -3.4e+38 -3.4e+38 -3.4e+38 -3.4e+38 -3.4e+38 -3.4e+38 -3.4e+38 -3.4e+38 -3.4e+38 -3.4e+38 -3.4e+38 -3.4e+38 -3.4e+38 -3.4e+38 -3.4e+38 -3.4e+38 -3.4e+38 -3.4e+38 -3.4e+38
2.44098687171936 2.19458794593811 1.59691083431244 1.84643888473511 3.23686289787292 2.26197147369385 2.61447858810425 2.15897226333618 3.0512855052948 2.06101775169373 2.335853099823 4.31062412261963 3.48366284370422 12.6204166412354 14.879807472229 12.5284824371338 4.62294244766235 5.77605724334717 21.7827205657959 31.5478439331055 41.3891754150391 45.8072814941406 46.392520904541 48.7046546936035 71.6830902099609 76.1467132568359 79.599365234375 87.9333267211914 85.8925552368164 97.3872222900391 91.0073318481445 91.896728515625 91.3893966674805 87.3953628540039 93.4266662597656 101.836196899414 106.533531188965 103.33292388916 96.8169708251953 106.684127807617 116.462135314941 130.31901550293 123.867111206055 123.365112304688 118.198837280273 92.830451965332 113.525787353516 102.033004760742 82.5116195678711 91.5109252929688 117.24536895752 104.634437561035 115.123863220215 105.396713256836 103.249633789062 97.3374328613281 88.5664215087891 73.2584686279297 76.6793975830078 68.6456069946289 52.9123649597168 45.1049270629883 81.392204284668 101.411285400391 112.412178039551 106.912460327148 111.025947570801 125.578559875488 121.451652526855 110.49397277832 105.748954772949 108.003868103027 117.872993469238 116.213966369629 123.614898681641 132.718505859375 139.602874755859 152.53157043457 160.483825683594 168.994522094727 179.699005126953 172.143783569336 166.799026489258 167.651062011719 138.967727661133 140.992721557617 154.823989868164 162.030426025391 169.749389648438 183.015518188477 197.263961791992 201.675598144531 205.774475097656 209.287536621094 210.726409912109 205.356643676758 186.392639160156 163.196823120117 155.40576171875 155.107604980469 146.827133178711 150.63166809082 172.317291259766 182.704010009766 193.212051391602 210.309051513672 224.142501831055 196.542663574219 193.788360595703 214.071960449219 229.640197753906 243.96549987793 243.375244140625 241.727310180664 222.901748657227 210.105422973633 199.379776000977 224.452163696289 230.881317138672 236.581298828125 229.323211669922 229.157745361328 243.027877807617 218.71142578125 222.83154296875 225.168746948242 236.260345458984 244.465698242188 241.578475952148 247.405654907227 258.682861328125 260.673736572266 272.130859375 281.489379882812 290.948364257812 289.240844726562 279.885711669922 279.605438232422 285.630828857422 282.620544433594 268.282043457031 267.553100585938 274.025024414062 272.301818847656 262.954864501953 253.4453125 255.300186157227 254.634689331055 250.935501098633 236.826675415039 224.705154418945 231.341064453125 239.433959960938 242.364135742188 234.8388671875 246.55940246582 278.114166259766 313.744903564453 309.752899169922 314.68310546875 321.175689697266 312.686950683594 300.286773681641 293.350799560547 264.025207519531 240.339767456055 229.376708984375 209.853927612305 201.095565795898 191.684143066406 185.219284057617 -3.4e+38 -3.4e+38 -3.4e+38 -3.4e+38 -3.4e+38 -3.4e+38 -3.4e+38 -3.4e+38 -3.4e+38 -3.4e+38 -3.4e+38 -3.4e+38 -3.4e+38 -3.4e+38 -3.4e+38 -3.4e+38 -3.4e+38 -3.4e+38 -3.4e+38 -3.4e+38 -3.4e+38 -3.4e+38 -3.4e+38 -3.4e+38 -3.4e+38 -3.4e+38 -3.4e+38 -3.4e+38 -3.4e+38 -3.4e+38 -3.4e+38 -3.4e+38 -3.4e+38 -3.4e+38 -3.4e+38 -3.4e+38 -3.4e+38 -3.4e+38 -3.4e+38 -3.4e+38 -3.4e+38 -3.4e+38 -3.4e+38 -3.4e+38 -3.4e+38 -3.4e+38 -3.4e+38 -3.4e+38 -3.4e+38 -3.4e+38 -3.4e+38 -3.4e+38 -3.4e+38
1.23253786563873 2.47658944129944 4.01084041595459 3.34728622436523 3.0807363986969 2.90401339530945 3.69135928153992 3.2081515789032 2.04625391960144 1.75593376159668 6.20286560058594 14.0390224456787 11.7320327758789 13.3503437042236 18.6221179962158 23.3538246154785 20.4070930480957 5.08034753799438 20.4478015899658 38.5688934326172 39.5447654724121 43.2695846557617 44.352970123291 49.0095901489258 71.2011642456055 74.6565551757812 83.7046279907227 88.7305603027344 92.6366119384766 94.6223220825195 88.0103302001953 80.7971801757812 81.3213424682617 83.7081069946289 93.1547622680664 98.4296646118164 104.585403442383 107.691093444824 106.739303588867 107.784965515137 118.533638000488 116.474327087402 100.25602722168 107.500946044922 101.553840637207 91.5191116333008 95.1714706420898 73.3970642089844 82.9771728515625 94.8798217773438 107.223999023438 86.1917419433594 95.2291107177734 97.3725509643555 90.3290405273438 78.8782043457031 67.7083053588867 54.3568305969238 49.6813735961914 47.4356536865234 60.7304649353027 84.2822036743164 107.317764282227 109.476890563965 129.454437255859 130.621566772461 118.598976135254 117.419342041016 123.204330444336 124.675483703613 129.447250366211 119.246124267578 116.377944946289 120.099044799805 121.273284912109 123.519775390625 130.905471801758 141.541076660156 133.49430847168 139.44499206543 167.257827758789 169.042007446289 146.189712524414 140.326873779297 136.893814086914 149.092391967773 157.988479614258 155.428359985352 163.600433349609 167.142837524414 174.041366577148 183.415115356445 189.768127441406 202.911361694336 209.457809448242 211.165634155273 199.588363647461 172.596618652344 165.667388916016 176.790863037109 176.618942260742 167.829956054688 173.0859375 173.941192626953 179.667327880859 190.671264648438 212.120498657227 222.87353515625 203.210235595703 203.627700805664 221.31364440918 233.465759277344 240.575088500977 249.275344848633 238.580917358398 219.917297363281 203.845397949219 226.315124511719 241.97883605957 239.239227294922 246.477661132812 235.433120727539 238.196105957031 232.645721435547 251.466903686523 254.17724609375 248.929611206055 249.374160766602 265.506195068359 266.167175292969 276.400634765625 271.092468261719 269.244354248047 283.055816650391 295.723602294922 288.187133789062 291.510864257812 298.602111816406 295.492401123047 290.591949462891 278.556579589844 271.106964111328 286.204071044922 277.811004638672 262.313171386719 261.494812011719 252.032440185547 236.118927001953 235.069091796875 231.384429931641 227.876235961914 229.904556274414 233.140991210938 225.78678894043 229.221160888672 254.086563110352 275.741546630859 291.050598144531 307.854370117188 307.4150390625 294.611480712891 294.293365478516 288.585388183594 289.136962890625 266.546630859375 247.253005981445 245.153381347656 216.03515625 203.733322143555 201.560287475586 191.302230834961 -3.4e+38 -3.4e+38 -3.4e+38 -3.4e+38 -3.4e+38 -3.4e+38 -3.4e+38 -3.4e+38 -3.4e+38 -3.4e+38 -3.4e+38 -3.4e+38 -3.4e+38 -3.4e+38 -3.4e+38 -3.4e+38 -3.4e+38 -3.4e+38 -3.4e+38 -3.4e+38 -3.4e+38 -3.4e+38 -3.4e+38 -3.4e+38 -3.4e+38 -3.4e+38 -3.4e+38 -3.4e+38 -3.4e+38 -3.4e+38 -3.4e+38 -3.4e+38 -3.4e+38 -3.4e+38 -3.4e+38 -3.4e+38 -3.4e+38 -3.4e+38 -3.4e+38 -3.4e+38 -3.4e+38 -3.4e+38 -3.4e+38 -3.4e+38 -3.4e+38 -3.4e+38 -3.4e+38 -3.4e+38 -3.4e+38 -3.4e+38 -3.4e+38 -3.4e+38 -3.4e+38
2.9836893081665 3.39992642402649 3.56241130828857 3.2047815322876 3.1866180896759 3.36040854454041 3.01225900650024 2.87079215049744 2.25427889823914 2.79295659065247 12.2846260070801 17.472541809082 15.0774230957031 16.4678173065186 19.09938621521 23.0627784729004 23.1734466552734 10.9821338653564 7.24752521514893 23.1796379089355 31.433313369751 36.846263885498 39.6347579956055 48.6171989440918 63.7125244140625 73.9272613525391 84.8408660888672 87.8120346069336 92.5085983276367 86.3360900878906 83.7750930786133 72.5823745727539 75.1773223876953 83.2897567749023 86.1118698120117 94.0777359008789 97.5276794433594 102.28955078125 100.105491638184 102.246322631836 102.836151123047 93.914176940918 81.7416839599609 76.1558532714844 72.2605209350586 77.5270385742188 73.0060729980469 88.1736679077148 72.4794158935547 50.6162300109863 52.8445129394531 52.0150604248047 65.3886795043945 82.9804077148438 76.8752746582031 64.3184127807617 40.1450042724609 47.734935760498 77.0477752685547 95.4846801757812 112.767562866211 114.411689758301 106.844032287598 121.883697509766 134.808120727539 136.927505493164 132.239700317383 131.688507080078 127.785751342773 136.840515136719 141.18342590332 128.337783813477 128.071304321289 132.38720703125 132.989624023438 130.770141601562 135.443634033203 141.42448425293 127.583274841309 99.2873382568359 110.882781982422 134.148773193359 138.59748840332 156.079010009766 177.489639282227 174.083770751953 175.491500854492 185.133666992188 189.535919189453 179.509689331055 179.954711914062 187.310745239258 187.969268798828 187.73681640625 190.997131347656 196.659271240234 203.49983215332 188.511917114258 173.078704833984 180.885803222656 195.184478759766 206.638748168945 198.311004638672 199.834518432617 199.513763427734 189.534408569336 202.779510498047 223.847320556641 225.370788574219 207.56120300293 215.933898925781 237.9853515625 235.303573608398 245.369110107422 239.377426147461 218.631423950195 208.805938720703 227.834915161133 244.015335083008 250.230545043945 262.478881835938 257.080200195312 249.230361938477 241.997970581055 240.791061401367 258.445465087891 271.182830810547 271.200408935547 278.587097167969 277.783874511719 279.206176757812 288.244476318359 285.619995117188 286.880401611328 300.583343505859 293.188659667969 298.148162841797 302.947265625 301.079528808594 290.967681884766 288.276611328125 282.610565185547 292.469970703125 279.787322998047 268.383422851562 257.581573486328 239.186080932617 235.695755004883 231.402908325195 230.655136108398 248.178665161133 242.499603271484 239.395660400391 229.182205200195 227.965270996094 247.741409301758 271.443084716797 298.941650390625 308.267120361328 281.984191894531 269.682434082031 267.331817626953 265.907257080078 269.209197998047 255.516052246094 238.613555908203 227.012283325195 212.235900878906 203.205535888672 195.314331054688 -3.4e+38 -3.4e+38 -3.4e+38 -3.4e+38 -3.4e+38 -3.4e+38 -3.4e+38 -3.4e+38 -3.4e+38 -3.4e+38 -3.4e+38 -3.4e+38 -3.4e+38 -3.4e+38 -3.4e+38 -3.4e+38 -3.4e+38 -3.4e+38 -3.4e+38 -3.4e+38 -3.4e+38 -3.4e+38 -3.4e+38 -3.4e+38 -3.4e+38 -3.4e+38 -3.4e+38 -3.4e+38 -3.4e+38 -3.4e+38 -3.4e+38 -3.4e+38 -3.4e+38 -3.4e+38 -3.4e+38 -3.4e+38 -3.4e+38 -3.4e+38 -3.4e+38 -3.4e+38 -3.4e+38 -3.4e+38 -3.4e+38 -3.4e+38 -3.4e+38 -3.4e+38 -3.4e+38 -3.4e+38 -3.4e+38 -3.4e+38 -3.4e+38 -3.4e+38 -3.4e+38 -3.4e+38
3.7204213142395 3.64042282104492 3.37580108642578 3.08239459991455 2.93088603019714 2.88903498649597 2.5825035572052 2.06932091712952 1.88025164604187 2.02183365821838 7.84900426864624 11.2021265029907 12.5076198577881 19.0232257843018 19.1419353485107 22.352954864502 26.9370651245117 30.0735454559326 17.1969871520996 16.2972087860107 32.173168182373 39.9922256469727 43.4691963195801 53.3072166442871 65.3887557983398 70.9660339355469 76.5294189453125 79.3938522338867 84.2066192626953 80.2502746582031 77.5605697631836 71.3352508544922 72.0594863891602 78.1184463500977 81.5756988525391 91.324951171875 98.1831512451172 102.59391784668 90.2118377685547 94.5792846679688 65.3679580688477 55.0333976745605 54.3603477478027 62.5424499511719 64.3327331542969 59.4419059753418 56.0925445556641 46.9490661621094 31.9266910552979 23.2720832824707 24.2968521118164 25.8518581390381 30.7537841796875 49.8181076049805 63.0246543884277 46.1018600463867 34.4485893249512 70.5856475830078 94.6669998168945 102.103637695312 112.715065002441 109.51538848877 114.714050292969 125.309814453125 131.688110351562 127.452659606934 130.305023193359 130.541213989258 128.997482299805 128.84733581543 129.529678344727 128.328765869141 127.9755859375 126.363220214844 128.106063842773 137.667388916016 142.489151000977 134.303649902344 114.20435333252 85.824089050293 93.5511322021484 108.494407653809 140.93473815918 167.089614868164 191.009658813477 201.730178833008 190.68212890625 195.933090209961 207.065963745117 194.349395751953 191.739639282227 194.413070678711 203.424667358398 206.602752685547 205.132919311523 203.504776000977 198.258987426758 196.501220703125 197.578079223633 188.06770324707 206.894317626953 223.511322021484 215.118682861328 216.625411987305 209.198654174805 201.904083251953 198.151504516602 220.476013183594 236.140899658203 231.236083984375 216.210647583008 222.230285644531 237.988128662109 245.220199584961 241.052062988281 232.992660522461 220.027938842773 214.473358154297 230.84538269043 247.794647216797 267.670959472656 261.972991943359 258.926635742188 251.950012207031 238.199935913086 244.149856567383 258.631103515625 267.013824462891 280.125457763672 292.493621826172 298.498809814453 297.972930908203 310.5595703125 301.138488769531 306.221588134766 297.193328857422 302.931884765625 307.909027099609 302.352783203125 293.290802001953 295.362274169922 299.549407958984 304.104797363281 293.365234375 278.612640380859 254.746627807617 247.491577148438 248.274063110352 248.536743164062 248.223297119141 247.405868530273 254.281661987305 247.782638549805 234.566513061523 221.21907043457 237.41259765625 267.112091064453 279.252258300781 279.743469238281 256.931671142578 244.495330810547 247.741516113281 250.548385620117 260.556182861328 244.209075927734 234.102874755859 218.780914306641 210.828018188477 207.08024597168 211.800445556641 -3.4e+38 -3.4e+38 -3.4e+38 -3.4e+38 -3.4e+38 -3.4e+38 -3.4e+38 -3.4e+38 -3.4e+38 -3.4e+38 -3.4e+38 -3.4e+38 -3.4e+38 -3.4e+38 -3.4e+38 -3.4e+38 -3.4e+38 -3.4e+38 -3.4e+38 -3.4e+38 -3.4e+38 -3.4e+38 -3.4e+38 -3.4e+38 -3.4e+38 -3.4e+38 -3.4e+38 -3.4e+38 -3.4e+38 -3.4e+38 -3.4e+38 -3.4e+38 -3.4e+38 -3.4e+38 -3.4e+38 -3.4e+38 -3.4e+38 -3.4e+38 -3.4e+38 -3.4e+38 -3.4e+38 -3.4e+38 -3.4e+38 -3.4e+38 -3.4e+38 -3.4e+38 -3.4e+38 -3.4e+38 -3.4e+38 -3.4e+38 -3.4e+38 -3.4e+38 -3.4e+38 -3.4e+38
3.69106650352478 3.71900963783264 3.28740692138672 2.98168420791626 2.82059454917908 2.37021446228027 2.3039882183075 2.06719160079956 2.29352760314941 2.29991292953491 2.00459265708923 3.8213677406311 13.6257247924805 19.9514179229736 21.4172172546387 27.511510848999 34.3462829589844 36.4782218933105 41.6235580444336 32.0035781860352 24.6939029693604 30.534122467041 42.0107498168945 53.0023193359375 66.3946304321289 72.8682556152344 75.3828659057617 74.1596603393555 72.6143264770508 72.471794128418 74.4613342285156 71.3729476928711 61.9034614562988 77.4077377319336 90.1501083374023 92.2053298950195 91.0561981201172 86.0784072875977 72.404167175293 53.3132781982422 30.9939727783203 32.9314918518066 31.6296634674072 37.4899597167969 35.9058418273926 33.7507591247559 22.5827903747559 23.3206424713135 27.3529109954834 29.9438934326172 33.248722076416 40.1891326904297 39.586555480957 33.6182708740234 33.8066215515137 32.4216499328613 33.6630477905273 51.0490570068359 59.3519897460938 53.8009033203125 67.687629699707 95.9849395751953 105.337127685547 110.35733795166 121.887031555176 129.486358642578 122.27131652832 117.444374084473 117.640098571777 126.819107055664 122.833602905273 117.116149902344 119.363960266113 118.83674621582 123.088928222656 131.12239074707 142.741973876953 134.929122924805 108.421501159668 84.3484725952148 104.524101257324 127.717407226562 118.673362731934 142.529266357422 177.321838378906 191.575912475586 201.311462402344 207.439224243164 214.055770874023 214.095108032227 209.016906738281 211.615371704102 201.590866088867 207.202758789062 216.090881347656 218.218185424805 217.518096923828 209.643188476562 204.647750854492 210.49543762207 212.254501342773 221.347961425781 226.981155395508 221.001586914062 211.984909057617 212.984451293945 204.435607910156 204.591690063477 221.878921508789 238.895690917969 240.876342773438 232.55290222168 226.883331298828 236.275833129883 249.020919799805 244.646774291992 230.555877685547 218.434341430664 224.24560546875 253.822677612305 264.555358886719 268.210998535156 261.319976806641 257.680297851562 257.954223632812 240.870407104492 242.751037597656 254.35466003418 265.328338623047 286.793579101562 285.848571777344 288.868957519531 304.923614501953 312.538391113281 306.147613525391 300.954620361328 311.488006591797 318.349243164062 305.425018310547 304.115600585938 304.220458984375 306.162353515625 309.962921142578 299.188934326172 289.268310546875 263.943481445312 263.454071044922 276.748748779297 276.417816162109 268.054718017578 265.611724853516 266.657165527344 258.900817871094 242.43733215332 210.138137817383 208.208038330078 222.936676025391 234.733535766602 258.663360595703 248.942810058594 222.578384399414 248.591491699219 242.081436157227 265.559967041016 246.448669433594 222.135223388672 211.69482421875 206.691619873047 203.176712036133 -3.4e+38 -3.4e+38 -3.4e+38 -3.4e+38 -3.4e+38 -3.4e+38 -3.4e+38 -3.4e+38 -3.4e+38 -3.4e+38 -3.4e+38 -3.4e+38 -3.4e+38 -3.4e+38 -3.4e+38 -3.4e+38 -3.4e+38 -3.4e+38 -3.4e+38 -3.4e+38 -3.4e+38 -3.4e+38 -3.4e+38 -3.4e+38 -3.4e+38 -3.4e+38 -3.4e+38 -3.4e+38 -3.4e+38 -3.4e+38 -3.4e+38 -3.4e+38 -3.4e+38 -3.4e+38 -3.4e+38 -3.4e+38 -3.4e+38 -3.4e+38 -3.4e+38 -3.4e+38 -3.4e+38 -3.4e+38 -3.4e+38 -3.4e+38 -3.4e+38 -3.4e+38 -3.4e+38 -3.4e+38 -3.4e+38 -3.4e+38 -3.4e+38 -3.4e+38 -3.4e+38 -3.4e+38 -3.4e+38
3.58750224113464 3.17416048049927 2.67646384239197 2.64654898643494 2.12193560600281 2.13513040542603 2.1480176448822 1.97100412845612 4.05352210998535 4.24979305267334 3.34950017929077 2.07091903686523 6.29010391235352 16.6791172027588 23.8878135681152 32.2379989624023 37.8168296813965 44.5313415527344 50.8923568725586 48.9751091003418 33.5673179626465 24.0508422851562 35.781681060791 62.0751609802246 72.9750442504883 71.1703491210938 70.6565246582031 71.7070465087891 59.9992790222168 64.7192764282227 78.8881225585938 62.5377082824707 61.1090927124023 82.124382019043 82.6879501342773 84.2577743530273 75.5552368164062 61.9186401367188 32.3671646118164 20.7231254577637 19.1965370178223 19.0419692993164 19.567045211792 20.8875637054443 21.3816890716553 24.0824375152588 30.7796573638916 37.9384307861328 43.9539070129395 51.9453163146973 68.6457443237305 67.5954818725586 62.3793106079102 52.3388366699219 45.6979751586914 45.0880165100098 43.6797180175781 37.5597152709961 37.7397689819336 39.748104095459 35.8361358642578 70.3087615966797 91.2609481811523 117.755432128906 129.605346679688 115.726066589355 102.7392578125 115.418548583984 125.86051940918 122.570587158203 116.993721008301 108.115295410156 119.018600463867 112.607788085938 117.736511230469 128.298263549805 145.757690429688 147.406845092773 129.851013183594 90.6030197143555 98.4949188232422 118.276153564453 109.212577819824 135.341552734375 164.345001220703 182.47282409668 201.560745239258 215.955474853516 220.863967895508 230.234176635742 223.252258300781 229.647445678711 221.828536987305 217.199768066406 217.032043457031 222.550216674805 223.255218505859 221.435394287109 215.319610595703 212.731643676758 217.581115722656 223.590194702148 233.747680664062 228.508087158203 225.675796508789 229.727798461914 222.082321166992 218.58235168457 209.000076293945 224.662689208984 225.472030639648 241.242095947266 244.678924560547 237.987014770508 240.027267456055 251.830932617188 245.628952026367 231.898086547852 220.738800048828 238.221588134766 267.392211914062 268.159301757812 270.281524658203 264.214538574219 267.944030761719 267.442993164062 255.783843994141 244.379760742188 252.143585205078 268.043365478516 273.938537597656 283.488433837891 301.866333007812 297.785766601562 305.586486816406 310.716125488281 313.886352539062 320.659759521484 305.639831542969 318.740936279297 326.836578369141 316.096374511719 310.375610351562 303.767425537109 293.277130126953 281.788604736328 290.799285888672 303.156219482422 291.808013916016 280.949645996094 280.913970947266 273.969818115234 263.609619140625 236.603530883789 218.231460571289 215.908798217773 199.682968139648 206.757263183594 238.494125366211 240.690414428711 216.070297241211 225.606887817383 228.027053833008 245.227401733398 236.103530883789 218.252136230469 209.427825927734 210.054534912109 198.142639160156 -3.4e+38 -3.4e+38 -3.4e+38 -3.4e+38 -3.4e+38 -3.4e+38 -3.4e+38 -3.4e+38 -3.4e+38 -3.4e+38 -3.4e+38 -3.4e+38 -3.4e+38 -3.4e+38 -3.4e+38 -3.4e+38 -3.4e+38 -3.4e+38 -3.4e+38 -3.4e+38 -3.4e+38 -3.4e+38 -3.4e+38 -3.4e+38 -3.4e+38 -3.4e+38 -3.4e+38 -3.4e+38 -3.4e+38 -3.4e+38 -3.4e+38 -3.4e+38 -3.4e+38 -3.4e+38 -3.4e+38 -3.4e+38 -3.4e+38 -3.4e+38 -3.4e+38 -3.4e+38 -3.4e+38 -3.4e+38 -3.4e+38 -3.4e+38 -3.4e+38 -3.4e+38 -3.4e+38 -3.4e+38 -3.4e+38 -3.4e+38 -3.4e+38 -3.4e+38 -3.4e+38 -3.4e+38 -3.4e+38
2.07994246482849 2.03076028823853 1.97071921825409 2.06236791610718 2.17010068893433 1.61467313766479 1.49988198280334 9.20850372314453 15.7359266281128 10.9356565475464 12.3645458221436 6.73082160949707 3.25844120979309 4.73013925552368 9.17858219146729 25.5856323242188 40.5318145751953 42.7241439819336 49.9366569519043 49.6405868530273 49.309009552002 42.1823539733887 36.3106918334961 42.3666572570801 48.8460845947266 49.0227508544922 53.5531044006348 58.0084114074707 53.0817451477051 52.0218315124512 63.9307060241699 54.6490631103516 72.6600723266602 72.8780059814453 70.0501098632812 70.9677505493164 59.8515892028809 32.1402435302734 15.8536310195923 17.1124782562256 19.7365741729736 21.7202262878418 24.8199501037598 31.3740921020508 36.4777641296387 47.273078918457 48.138298034668 56.2239112854004 76.5225143432617 86.0565032958984 95.8947067260742 103.889228820801 98.0202178955078 81.3914108276367 74.8833694458008 73.3718338012695 86.8348007202148 83.9188003540039 62.2434349060059 51.9554328918457 40.5013847351074 55.8840255737305 82.5349884033203 86.1964721679688 85.4905471801758 92.8389129638672 122.133270263672 132.515029907227 125.827163696289 100.776191711426 101.218955993652 106.617607116699 105.066299438477 102.749137878418 117.810363769531 140.28547668457 145.602691650391 134.485397338867 132.201141357422 103.830543518066 90.1446533203125 104.663963317871 111.606971740723 129.902694702148 145.290756225586 160.719161987305 185.171844482422 201.250915527344 213.003021240234 217.250991821289 224.38200378418 226.100723266602 226.890274047852 223.004180908203 223.462692260742 223.817489624023 225.850616455078 225.275131225586 221.309677124023 225.14128112793 234.675994873047 233.029846191406 231.118316650391 236.947662353516 238.345672607422 244.239624023438 242.761840820312 238.849822998047 222.045837402344 211.32649230957 219.061996459961 225.737503051758 237.939163208008 260.770385742188 249.679992675781 249.797653198242 248.404861450195 239.225601196289 235.604934692383 235.277038574219 240.54460144043 269.732452392578 279.479614257812 270.559173583984 274.257598876953 276.959167480469 273.931823730469 250.871475219727 254.404846191406 262.142456054688 277.906280517578 283.459564208984 285.374816894531 296.868804931641 312.130126953125 324.349609375 321.359710693359 325.101806640625 312.228363037109 330.917816162109 340.566558837891 331.130950927734 331.781433105469 327.758178710938 329.344879150391 337.470397949219 330.97021484375 319.064910888672 308.2978515625 294.802307128906 284.494232177734 272.832916259766 256.237945556641 246.171646118164 236.568695068359 223.806747436523 223.021957397461 207.041122436523 203.554336547852 213.488189697266 208.7666015625 212.551803588867 217.723815917969 224.660339355469 232.333511352539 225.367523193359 208.651840209961 202.48225402832 -3.4e+38 -3.4e+38 -3.4e+38 -3.4e+38 -3.4e+38 -3.4e+38 -3.4e+38 -3.4e+38 -3.4e+38 -3.4e+38 -3.4e+38 -3.4e+38 -3.4e+38 -3.4e+38 -3.4e+38 -3.4e+38 -3.4e+38 -3.4e+38 -3.4e+38 -3.4e+38 -3.4e+38 -3.4e+38 -3.4e+38 -3.4e+38 -3.4e+38 -3.4e+38 -3.4e+38 -3.4e+38 -3.4e+38 -3.4e+38 -3.4e+38 -3.4e+38 -3.4e+38 -3.4e+38 -3.4e+38 -3.4e+38 -3.4e+38 -3.4e+38 -3.4e+38 -3.4e+38 -3.4e+38 -3.4e+38 -3.4e+38 -3.4e+38 -3.4e+38 -3.4e+38 -3.4e+38 -3.4e+38 -3.4e+38 -3.4e+38 -3.4e+38 -3.4e+38 -3.4e+38 -3.4e+38 -3.4e+38 -3.4e+38
1.46977806091309 1.09900891780853 1.62684202194214 1.76319754123688 2.03602242469788 1.33974802494049 1.61264097690582 10.4611215591431 16.1774845123291 14.7254371643066 14.9201097488403 8.68065357208252 6.56410646438599 6.94837665557861 3.44935417175293 8.71224594116211 16.8185920715332 22.2187881469727 33.3654594421387 40.2734375 48.9014205932617 50.3207092285156 68.383918762207 52.5713424682617 43.2537040710449 52.7082328796387 48.9210395812988 45.6662902832031 43.4195938110352 47.2521209716797 45.3609848022461 53.2995452880859 64.236442565918 56.4586029052734 59.0649719238281 53.2187004089355 36.2542457580566 16.1358814239502 16.7818298339844 20.2071361541748 22.8842887878418 30.237117767334 37.4006004333496 46.5397491455078 49.8749465942383 53.5394706726074 58.2702369689941 62.8196182250977 83.1116714477539 85.2037582397461 89.9246520996094 101.486251831055 100.38232421875 98.2223739624023 102.327194213867 94.7752380371094 112.456436157227 127.405059814453 87.4751663208008 70.9117736816406 64.5159530639648 45.6971969604492 61.182258605957 65.916862487793 76.1105880737305 99.3599624633789 112.710357666016 113.850578308105 115.192459106445 69.0752182006836 69.4712677001953 85.4070510864258 98.2794799804688 110.355346679688 126.810577392578 142.506805419922 126.137199401855 111.561454772949 115.363227844238 105.815933227539 84.7069625854492 99.9602432250977 117.031280517578 124.926803588867 122.14176940918 133.080688476562 155.976974487305 169.309143066406 190.466522216797 210.769241333008 212.422302246094 217.260391235352 222.377304077148 225.427230834961 226.802154541016 225.836181640625 227.489242553711 226.310775756836 224.716033935547 227.170333862305 237.62419128418 244.752136230469 240.646041870117 242.304397583008 242.511688232422 245.642547607422 248.8759765625 251.613739013672 240.916885375977 228.271347045898 232.499938964844 231.243621826172 231.424621582031 250.546798706055 268.745971679688 266.856597900391 259.338714599609 258.908081054688 247.46321105957 238.02197265625 242.157592773438 264.30322265625 281.24853515625 277.537353515625 282.236663818359 281.777404785156 274.955169677734 254.987243652344 272.876007080078 289.848724365234 272.93994140625 277.752899169922 282.321624755859 296.880126953125 305.15380859375 318.941833496094 326.217132568359 324.785736083984 321.241455078125 326.904174804688 337.7099609375 341.263458251953 350.355499267578 355.220977783203 354.796356201172 371.505615234375 370.548248291016 341.945129394531 320.234069824219 312.0625 304.206848144531 278.183807373047 269.722198486328 260.424957275391 241.59455871582 259.411468505859 245.968597412109 220.634689331055 186.247268676758 192.212814331055 199.986679077148 209.116149902344 205.666213989258 214.129028320312 225.560623168945 215.172470092773 207.557373046875 -3.4e+38 -3.4e+38 -3.4e+38 -3.4e+38 -3.4e+38 -3.4e+38 -3.4e+38 -3.4e+38 -3.4e+38 -3.4e+38 -3.4e+38 -3.4e+38 -3.4e+38 -3.4e+38 -3.4e+38 -3.4e+38 -3.4e+38 -3.4e+38 -3.4e+38 -3.4e+38 -3.4e+38 -3.4e+38 -3.4e+38 -3.4e+38 -3.4e+38 -3.4e+38 -3.4e+38 -3.4e+38 -3.4e+38 -3.4e+38 -3.4e+38 -3.4e+38 -3.4e+38 -3.4e+38 -3.4e+38 -3.4e+38 -3.4e+38 -3.4e+38 -3.4e+38 -3.4e+38 -3.4e+38 -3.4e+38 -3.4e+38 -3.4e+38 -3.4e+38 -3.4e+38 -3.4e+38 -3.4e+38 -3.4e+38 -3.4e+38 -3.4e+38 -3.4e+38 -3.4e+38 -3.4e+38 -3.4e+38 -3.4e+38 -3.4e+38
1.33303582668304 0.967108964920044 0.875737726688385 1.09214270114899 1.29158592224121 1.44736993312836 2.23282885551453 6.80034732818604 15.732629776001 16.2223949432373 15.5308666229248 14.079647064209 7.22585582733154 13.1364269256592 12.6287565231323 8.4865083694458 5.05926084518433 4.62115097045898 7.28758811950684 17.859992980957 29.0428161621094 39.4789237976074 60.1917037963867 57.5715560913086 58.2763862609863 63.2513656616211 67.7107162475586 64.2475814819336 59.1566696166992 66.7095565795898 61.6665344238281 60.3010787963867 60.6796073913574 64.4326171875 51.593376159668 20.4328155517578 13.762279510498 16.1323871612549 22.0242786407471 27.4986515045166 31.2878437042236 36.80419921875 49.9367866516113 54.1203422546387 55.4351196289062 58.7502212524414 72.2368011474609 77.1199569702148 73.8635101318359 72.9885940551758 77.2690353393555 84.1153335571289 85.8885192871094 98.3464736938477 103.994026184082 114.453620910645 143.805236816406 150.393539428711 106.939125061035 104.461578369141 99.8046646118164 85.4115829467773 79.8133392333984 64.2059020996094 60.851490020752 77.8572387695312 82.9529647827148 81.8986968994141 71.7521743774414 69.0963821411133 64.0000534057617 89.9027633666992 124.007995605469 126.880088806152 132.15153503418 122.436470031738 101.934440612793 98.5915832519531 104.70189666748 87.5914764404297 99.1511917114258 110.797035217285 117.23616027832 111.564178466797 118.207496643066 132.556488037109 159.854919433594 175.562713623047 174.131881713867 195.549987792969 203.467575073242 212.566482543945 219.867782592773 223.692977905273 224.754547119141 225.949356079102 226.785583496094 226.204376220703 226.958892822266 228.009658813477 232.517883300781 243.460021972656 247.293869018555 251.19953918457 249.92138671875 256.173797607422 256.250732421875 258.031219482422 248.522720336914 236.36262512207 247.221298217773 239.95751953125 245.7236328125 239.219207763672 254.362533569336 281.82470703125 277.659576416016 271.431091308594 264.659606933594 245.524429321289 239.047973632812 249.683670043945 279.732330322266 287.852569580078 286.52734375 294.432159423828 277.379425048828 257.846160888672 264.425628662109 281.175384521484 295.117309570312 296.131256103516 306.390930175781 292.423461914062 297.122375488281 304.31689453125 312.695648193359 329.535369873047 331.651916503906 331.715026855469 346.937347412109 355.374938964844 363.055969238281 371.339019775391 365.444183349609 374.142364501953 385.717712402344 360.969482421875 343.992370605469 329.992767333984 323.122985839844 299.408966064453 273.587646484375 256.564819335938 256.356292724609 269.736114501953 251.983810424805 222.58805847168 198.041168212891 184.319473266602 197.880065917969 199.037887573242 202.712539672852 212.785842895508 220.65412902832 213.648452758789 202.640090942383 -3.4e+38 -3.4e+38 -3.4e+38 -3.4e+38 -3.4e+38 -3.4e+38 -3.4e+38 -3.4e+38 -3.4e+38 -3.4e+38 -3.4e+38 -3.4e+38 -3.4e+38 -3.4e+38 -3.4e+38 -3.4e+38 -3.4e+38 -3.4e+38 -3.4e+38 -3.4e+38 -3.4e+38 -3.4e+38 -3.4e+38 -3.4e+38 -3.4e+38 -3.4e+38 -3.4e+38 -3.4e+38 -3.4e+38 -3.4e+38 -3.4e+38 -3.4e+38 -3.4e+38 -3.4e+38 -3.4e+38 -3.4e+38 -3.4e+38 -3.4e+38 -3.4e+38 -3.4e+38 -3.4e+38 -3.4e+38 -3.4e+38 -3.4e+38 -3.4e+38 -3.4e+38 -3.4e+38 -3.4e+38 -3.4e+38 -3.4e+38 -3.4e+38 -3.4e+38 -3.4e+38 -3.4e+38 -3.4e+38 -3.4e+38 -3.4e+38
0.938385367393494 0.636114120483398 0.608533203601837 0.771700799465179 0.902054488658905 1.2955265045166 1.93410730361938 2.91455054283142 12.1104803085327 16.3154602050781 20.5473480224609 22.1132392883301 10.2047080993652 9.37507343292236 29.837797164917 31.9200229644775 28.8878421783447 24.3733520507812 15.3461437225342 10.3213481903076 5.50887680053711 6.94436120986938 11.8330640792847 17.7061080932617 30.5881671905518 29.2060871124268 40.5947723388672 52.5820198059082 62.7801208496094 65.2427444458008 69.1160736083984 73.7221908569336 70.3783950805664 43.9004592895508 15.9708795547485 13.9912633895874 14.6943655014038 18.8068141937256 26.4387950897217 34.3899116516113 45.343822479248 44.9550590515137 36.6639175415039 53.4594039916992 63.9831275939941 68.3638000488281 75.5415420532227 87.1333084106445 91.1869277954102 93.9548110961914 93.3903656005859 91.2986755371094 93.8133163452148 104.921569824219 116.110458374023 143.857727050781 135.989532470703 129.449615478516 122.847480773926 120.405792236328 119.831901550293 119.151512145996 115.135444641113 105.234878540039 58.2719306945801 56.0904006958008 56.9727210998535 61.2360572814941 80.0263290405273 87.6044235229492 80.3956146240234 97.2296829223633 122.004837036133 109.147918701172 105.31022644043 92.8955841064453 87.8370895385742 94.2889251708984 86.6772384643555 90.5095901489258 116.332832336426 112.686256408691 103.641105651855 102.477874755859 119.852516174316 130.454956054688 148.099594116211 174.579620361328 167.359893798828 175.117385864258 194.504745483398 206.471572875977 212.263626098633 215.987747192383 221.497436523438 225.462814331055 225.370986938477 226.088134765625 227.965606689453 229.896118164062 230.238662719727 236.107833862305 247.265518188477 255.974136352539 259.830017089844 260.586547851562 268.976531982422 268.006469726562 261.525817871094 253.845092773438 257.599029541016 253.379791259766 255.611755371094 261.049865722656 244.589324951172 261.705413818359 277.490783691406 275.739624023438 278.900695800781 269.4599609375 256.305328369141 251.383941650391 266.441589355469 294.552307128906 296.022918701172 297.419708251953 279.509094238281 279.644226074219 281.419769287109 271.263366699219 304.363800048828 312.15185546875 316.287170410156 317.213806152344 317.022369384766 307.994293212891 315.353790283203 342.259063720703 344.428161621094 336.307434082031 350.041748046875 367.885986328125 383.079803466797 390.070861816406 379.740875244141 389.611083984375 393.89892578125 380.283721923828 368.781188964844 346.655212402344 336.954010009766 320.666625976562 280.629364013672 261.162353515625 267.336761474609 260.860931396484 249.787033081055 256.491790771484 208.05729675293 179.58268737793 188.159164428711 197.718505859375 203.442306518555 208.482269287109 206.244125366211 209.245956420898 -3.4e+38 -3.4e+38 -3.4e+38 -3.4e+38 -3.4e+38 -3.4e+38 -3.4e+38 -3.4e+38 -3.4e+38 -3.4e+38 -3.4e+38 -3.4e+38 -3.4e+38 -3.4e+38 -3.4e+38 -3.4e+38 -3.4e+38 -3.4e+38 -3.4e+38 -3.4e+38 -3.4e+38 -3.4e+38 -3.4e+38 -3.4e+38 -3.4e+38 -3.4e+38 -3.4e+38 -3.4e+38 -3.4e+38 -3.4e+38 -3.4e+38 -3.4e+38 -3.4e+38 -3.4e+38 -3.4e+38 -3.4e+38 -3.4e+38 -3.4e+38 -3.4e+38 -3.4e+38 -3.4e+38 -3.4e+38 -3.4e+38 -3.4e+38 -3.4e+38 -3.4e+38 -3.4e+38 -3.4e+38 -3.4e+38 -3.4e+38 -3.4e+38 -3.4e+38 -3.4e+38 -3.4e+38 -3.4e+38 -3.4e+38 -3.4e+38 -3.4e+38
0.610255122184753 0.663922011852264 0.856566488742828 0.232866808772087 1.51728093624115 6.91170310974121 6.91227769851685 2.17858624458313 7.07460451126099 15.3097553253174 22.5397319793701 25.1579093933105 15.7303619384766 7.98017072677612 21.8529720306396 26.6919231414795 34.0582504272461 38.9494552612305 34.6871185302734 36.8713188171387 22.9878120422363 28.6032676696777 13.2774820327759 8.59283828735352 7.8292555809021 8.18882465362549 10.5116910934448 20.9831504821777 27.2359752655029 26.7189502716064 31.4329509735107 43.2707633972168 29.9086647033691 11.733416557312 13.5009784698486 15.1329574584961 16.4863834381104 23.0221729278564 31.9189968109131 39.5054969787598 50.7899360656738 56.0349578857422 45.3885803222656 45.6994285583496 72.1075439453125 82.7412490844727 84.7256240844727 89.2485961914062 96.7448806762695 97.6667709350586 97.4395217895508 107.230224609375 110.518867492676 109.03010559082 121.802879333496 133.144653320312 115.790977478027 106.98950958252 117.854118347168 118.826835632324 137.14631652832 142.54557800293 138.5791015625 117.366218566895 94.0557861328125 89.7700119018555 95.1324157714844 95.8744277954102 108.668960571289 125.678062438965 129.181228637695 104.227386474609 92.4469833374023 71.5472412109375 70.2054748535156 70.4250793457031 78.1311264038086 91.2687377929688 83.9533081054688 93.6369857788086 98.4742889404297 98.5481414794922 113.855583190918 112.954124450684 116.147079467773 126.603904724121 145.270462036133 157.42887878418 176.650634765625 176.906265258789 181.960342407227 193.015594482422 203.282348632812 213.402557373047 218.345565795898 220.070327758789 218.202682495117 219.178131103516 222.59001159668 222.288345336914 222.961135864258 233.647094726562 248.098190307617 267.066314697266 309.74169921875 279.398101806641 303.923767089844 287.377227783203 273.996429443359 273.278747558594 279.515991210938 274.967590332031 272.177947998047 273.1171875 261.323547363281 253.794509887695 268.190399169922 284.503051757812 287.621643066406 285.421112060547 275.255126953125 274.495239257812 275.225708007812 282.8330078125 314.321716308594 317.747680664062 300.32421875 289.475799560547 290.772247314453 272.664855957031 276.547271728516 291.719909667969 310.071899414062 325.939300537109 336.96826171875 334.102935791016 330.306304931641 339.927490234375 354.022674560547 351.776458740234 356.583984375 377.723876953125 395.012512207031 397.573638916016 391.008209228516 400.597229003906 402.069671630859 390.153442382812 374.520874023438 352.649841308594 334.476898193359 316.096313476562 296.277099609375 282.942687988281 278.669647216797 269.923309326172 246.502365112305 246.755523681641 221.01416015625 185.18180847168 178.851577758789 189.218231201172 197.343505859375 201.949508666992 197.79248046875 -3.4e+38 -3.4e+38 -3.4e+38 -3.4e+38 -3.4e+38 -3.4e+38 -3.4e+38 -3.4e+38 -3.4e+38 -3.4e+38 -3.4e+38 -3.4e+38 -3.4e+38 -3.4e+38 -3.4e+38 -3.4e+38 -3.4e+38 -3.4e+38 -3.4e+38 -3.4e+38 -3.4e+38 -3.4e+38 -3.4e+38 -3.4e+38 -3.4e+38 -3.4e+38 -3.4e+38 -3.4e+38 -3.4e+38 -3.4e+38 -3.4e+38 -3.4e+38 -3.4e+38 -3.4e+38 -3.4e+38 -3.4e+38 -3.4e+38 -3.4e+38 -3.4e+38 -3.4e+38 -3.4e+38 -3.4e+38 -3.4e+38 -3.4e+38 -3.4e+38 -3.4e+38 -3.4e+38 -3.4e+38 -3.4e+38 -3.4e+38 -3.4e+38 -3.4e+38 -3.4e+38 -3.4e+38 -3.4e+38 -3.4e+38 -3.4e+38 -3.4e+38 -3.4e+38
0.321916192770004 0.875263750553131 0.476166814565659 1.44809198379517 9.20040416717529 14.131814956665 12.2822418212891 2.91780853271484 8.03702163696289 11.7709980010986 16.8160095214844 24.3684387207031 25.0635986328125 28.2784309387207 24.5573272705078 23.6533393859863 19.6531810760498 32.3850631713867 38.5623588562012 40.1786155700684 52.0888862609863 57.9597282409668 41.415225982666 32.1697082519531 24.7976875305176 18.4500102996826 17.5396156311035 12.569580078125 9.87160491943359 10.4284162521362 10.5012617111206 10.470386505127 11.5126066207886 13.7914705276489 15.4882822036743 20.7034587860107 24.78249168396 28.3584156036377 38.6182136535645 44.6281051635742 50.8305320739746 54.2067451477051 59.1695098876953 51.6211051940918 51.4819793701172 81.2640762329102 88.3525619506836 89.1801300048828 81.8633499145508 77.2874526977539 86.2201461791992 96.6791915893555 91.2167587280273 100.392959594727 106.864898681641 104.38484954834 100.598007202148 107.180763244629 108.478630065918 114.908447265625 126.954360961914 139.81103515625 144.257110595703 124.641502380371 127.618438720703 138.743179321289 132.393188476562 128.954986572266 119.044128417969 132.113708496094 145.881149291992 139.648468017578 130.167129516602 109.967971801758 89.5748748779297 85.0523681640625 87.5077209472656 104.499374389648 109.227310180664 111.909088134766 113.433158874512 110.112464904785 117.86351776123 133.130615234375 136.929748535156 134.682052612305 157.285598754883 155.03125 170.00129699707 187.487579345703 181.627685546875 196.609619140625 200.787582397461 207.950149536133 213.902328491211 214.464248657227 211.945816040039 212.460845947266 213.614181518555 215.738891601562 222.052398681641 231.577590942383 241.578109741211 251.042617797852 274.491180419922 302.999816894531 323.308837890625 327.366638183594 304.972869873047 289.541412353516 291.095855712891 296.258239746094 297.715209960938 290.62158203125 280.547607421875 262.638549804688 278.654937744141 296.285186767578 301.674346923828 293.711273193359 273.215972900391 283.927581787109 281.602294921875 277.115173339844 293.844787597656 322.857177734375 330.465393066406 308.789245605469 299.293365478516 284.230102539062 279.846832275391 279.971618652344 287.862945556641 307.797149658203 311.049682617188 317.025207519531 333.150146484375 346.567138671875 354.442779541016 355.770812988281 365.95361328125 383.205108642578 400.056610107422 417.380859375 405.513854980469 405.190795898438 410.904357910156 400.667053222656 383.952667236328 356.637176513672 340.511169433594 321.091033935547 301.853149414062 292.48095703125 281.427459716797 271.799713134766 250.427917480469 215.227951049805 213.175811767578 199.265884399414 177.190963745117 181.531753540039 191.505645751953 194.703887939453 191.358764648438 -3.4e+38 -3.4e+38 -3.4e+38 -3.4e+38 -3.4e+38 -3.4e+38 -3.4e+38 -3.4e+38 -3.4e+38 -3.4e+38 -3.4e+38 -3.4e+38 -3.4e+38 -3.4e+38 -3.4e+38 -3.4e+38 -3.4e+38 -3.4e+38 -3.4e+38 -3.4e+38 -3.4e+38 -3.4e+38 -3.4e+38 -3.4e+38 -3.4e+38 -3.4e+38 -3.4e+38 -3.4e+38 -3.4e+38 -3.4e+38 -3.4e+38 -3.4e+38 -3.4e+38 -3.4e+38 -3.4e+38 -3.4e+38 -3.4e+38 -3.4e+38 -3.4e+38 -3.4e+38 -3.4e+38 -3.4e+38 -3.4e+38 -3.4e+38 -3.4e+38 -3.4e+38 -3.4e+38 -3.4e+38 -3.4e+38 -3.4e+38 -3.4e+38 -3.4e+38 -3.4e+38 -3.4e+38 -3.4e+38 -3.4e+38 -3.4e+38 -3.4e+38 -3.4e+38
0.35983881354332 0.561483860015869 1.45937633514404 10.1959342956543 13.2517747879028 13.8486213684082 14.4447870254517 3.01430559158325 6.21364402770996 11.9900484085083 15.3288459777832 22.7510833740234 29.6810665130615 37.1232795715332 36.1995277404785 36.8733787536621 32.2188835144043 27.4074821472168 35.1373558044434 44.9803504943848 69.103271484375 63.3894271850586 59.0052070617676 45.526969909668 50.203742980957 52.1401443481445 49.5933494567871 46.8421020507812 27.7786750793457 16.6762733459473 15.7786312103271 15.1358842849731 16.8038215637207 20.6084327697754 23.910665512085 27.2843856811523 35.9889259338379 36.0795288085938 43.5696868896484 47.7580337524414 52.1532516479492 58.4778060913086 68.660758972168 73.7026824951172 56.042896270752 48.7354965209961 56.426700592041 57.5923118591309 54.7326316833496 61.7232475280762 70.6935195922852 82.3241500854492 78.3527526855469 89.5779266357422 92.7918014526367 89.3008804321289 98.4478607177734 101.157028198242 97.1220855712891 109.347763061523 133.444244384766 147.349960327148 131.368515014648 134.429229736328 141.614501953125 146.100891113281 138.654327392578 129.236846923828 118.966911315918 143.406204223633 144.207595825195 139.930191040039 150.580337524414 161.57373046875 140.171722412109 129.07795715332 125.877967834473 120.48949432373 132.129440307617 126.584327697754 128.119216918945 131.764587402344 123.580490112305 127.317428588867 146.502868652344 159.191452026367 149.734741210938 156.197326660156 167.725433349609 181.964080810547 181.604049682617 183.563171386719 193.775894165039 204.986892700195 205.004669189453 207.002624511719 208.627380371094 206.261703491211 210.61784362793 213.737915039062 218.289688110352 224.220916748047 231.110595703125 239.729293823242 255.602310180664 285.666168212891 300.755096435547 326.631103515625 334.051666259766 324.973968505859 328.544952392578 308.704681396484 305.932464599609 309.277160644531 297.62939453125 274.761016845703 280.597106933594 301.046203613281 309.708679199219 292.063873291016 284.472320556641 294.053894042969 280.385650634766 282.200805664062 292.675933837891 302.955841064453 328.602020263672 333.389984130859 324.957611083984 306.969268798828 291.115417480469 289.228302001953 301.774993896484 300.56396484375 296.328948974609 304.263793945312 321.000091552734 329.737762451172 337.027404785156 350.4296875 359.983489990234 371.280517578125 391.965454101562 422.762359619141 429.003387451172 427.295074462891 427.272888183594 426.648071289062 396.990936279297 362.016448974609 346.913238525391 328.331115722656 296.423431396484 266.143280029297 237.035949707031 225.605743408203 215.08464050293 211.928192138672 202.948928833008 199.58235168457 180.641052246094 174.286605834961 184.333419799805 188.218902587891 189.63298034668 -3.4e+38 -3.4e+38 -3.4e+38 -3.4e+38 -3.4e+38 -3.4e+38 -3.4e+38 -3.4e+38 -3.4e+38 -3.4e+38 -3.4e+38 -3.4e+38 -3.4e+38 -3.4e+38 -3.4e+38 -3.4e+38 -3.4e+38 -3.4e+38 -3.4e+38 -3.4e+38 -3.4e+38 -3.4e+38 -3.4e+38 -3.4e+38 -3.4e+38 -3.4e+38 -3.4e+38 -3.4e+38 -3.4e+38 -3.4e+38 -3.4e+38 -3.4e+38 -3.4e+38 -3.4e+38 -3.4e+38 -3.4e+38 -3.4e+38 -3.4e+38 -3.4e+38 -3.4e+38 -3.4e+38 -3.4e+38 -3.4e+38 -3.4e+38 -3.4e+38 -3.4e+38 -3.4e+38 -3.4e+38 -3.4e+38 -3.4e+38 -3.4e+38 -3.4e+38 -3.4e+38 -3.4e+38 -3.4e+38 -3.4e+38 -3.4e+38 -3.4e+38 -3.4e+38
