NCOLS 224
NROWS 28
XLLCORNER 109175.267783
YLLCORNER 236088.229321
CELLSIZE 1000 
NODATA_value -3.4e+38 
20.8258838653564 106.745063781738 155.494171142578 178.621047973633 115.754760742188 96.4005966186523 127.12166595459 130.835983276367 87.6255340576172 100.681884765625 110.409774780273 103.442817687988 144.112365722656 161.122436523438 168.071762084961 153.318252563477 139.359817504883 157.260757446289 157.46565246582 106.337425231934 82.3823471069336 72.833854675293 80.9785842895508 112.008766174316 149.03498840332 116.539459228516 75.7634201049805 69.5286712646484 87.3130416870117 70.3674926757812 34.3150024414062 49.6256408691406 46.3821868896484 49.1041870117188 120.35767364502 152.400360107422 146.768844604492 150.535369873047 118.801116943359 91.9743804931641 124.39518737793 125.495323181152 103.21378326416 73.9201736450195 61.7158012390137 56.8849449157715 58.0756072998047 50.9683036804199 40.2273559570312 32.801700592041 25.0595874786377 14.8979406356812 10.6555032730103 12.5633497238159 14.9447031021118 17.0214805603027 16.6379241943359 13.7400779724121 15.117130279541 15.2683916091919 11.365514755249 43.9861259460449 105.141639709473 124.847846984863 163.860824584961 176.252227783203 185.345108032227 172.296432495117 162.213806152344 143.475372314453 135.983459472656 165.524261474609 157.96110534668 146.669982910156 159.248458862305 172.086975097656 180.129348754883 187.383972167969 180.755844116211 181.751754760742 186.587036132812 188.353744506836 189.723861694336 193.616897583008 179.326141357422 182.331985473633 179.193481445312 165.429702758789 132.543258666992 140.387939453125 137.334655761719 127.991752624512 134.184265136719 133.076385498047 140.303298950195 153.069732666016 167.56852722168 183.757843017578 203.361114501953 218.61279296875 217.22395324707 211.602142333984 197.90901184082 186.740707397461 187.422439575195 207.862854003906 221.358184814453 219.392028808594 210.307983398438 221.433166503906 198.798461914062 185.843597412109 199.301361083984 210.517318725586 226.046844482422 226.735000610352 217.61653137207 220.168960571289 224.785171508789 231.69499206543 239.659088134766 243.207336425781 249.032974243164 254.453948974609 257.470153808594 260.193450927734 267.435791015625 277.948364257812 289.549407958984 290.647003173828 306.281555175781 294.174682617188 283.009216308594 297.0556640625 304.904083251953 302.881378173828 301.278869628906 306.656829833984 312.128723144531 319.713592529297 328.227905273438 326.012420654297 336.495971679688 364.721649169922 413.46923828125 412.059783935547 421.010467529297 430.781463623047 459.457885742188 439.243194580078 462.003234863281 597.673767089844 671.334167480469 690.713684082031 714.035583496094 679.02587890625 650.448974609375 666.112487792969 596.754028320312 609.3515625 696.828857421875 838.94970703125 -3.4e+38 -3.4e+38 -3.4e+38 -3.4e+38 -3.4e+38 -3.4e+38 -3.4e+38 -3.4e+38 -3.4e+38 -3.4e+38 -3.4e+38 -3.4e+38 -3.4e+38 -3.4e+38 -3.4e+38 -3.4e+38 -3.4e+38 -3.4e+38 -3.4e+38 -3.4e+38 -3.4e+38 -3.4e+38 -3.4e+38 -3.4e+38 -3.4e+38 -3.4e+38 -3.4e+38 -3.4e+38 -3.4e+38 -3.4e+38 -3.4e+38 -3.4e+38 -3.4e+38 -3.4e+38 -3.4e+38 -3.4e+38 -3.4e+38 -3.4e+38 -3.4e+38 -3.4e+38 -3.4e+38 -3.4e+38 -3.4e+38 -3.4e+38 -3.4e+38 -3.4e+38 -3.4e+38 -3.4e+38 -3.4e+38 -3.4e+38 -3.4e+38 -3.4e+38 -3.4e+38 -3.4e+38 -3.4e+38 -3.4e+38 -3.4e+38 -3.4e+38 -3.4e+38 -3.4e+38 -3.4e+38 -3.4e+38
25.5061721801758 117.598808288574 185.338623046875 171.229507446289 124.220329284668 123.913040161133 152.234619140625 128.545867919922 81.0659255981445 117.341636657715 128.416488647461 78.5262298583984 111.229583740234 124.372741699219 111.555732727051 123.847297668457 144.29931640625 158.477767944336 164.658432006836 123.525817871094 98.6482543945312 69.8585510253906 69.2673950195312 92.6687850952148 130.610382080078 130.75666809082 94.9226760864258 62.6486473083496 82.8025360107422 76.4321517944336 47.4412651062012 33.4002799987793 33.0140380859375 95.7292175292969 135.773040771484 143.738342285156 139.20832824707 144.550399780273 124.466384887695 76.9789505004883 91.264289855957 101.980796813965 90.4237747192383 71.1242904663086 56.7086906433105 48.0369338989258 48.3647384643555 56.592830657959 53.6393127441406 47.099437713623 62.8084754943848 23.5215702056885 10.862229347229 12.8248720169067 13.5972547531128 14.5358924865723 14.1885118484497 14.1446647644043 14.7924280166626 14.2494258880615 10.5540180206299 24.0157108306885 61.3813629150391 89.4592208862305 103.471824645996 129.389373779297 160.855606079102 138.389541625977 140.725860595703 121.027709960938 113.562896728516 109.64183807373 99.5167617797852 104.364929199219 120.97533416748 123.921279907227 133.269302368164 152.014526367188 166.388168334961 171.707580566406 182.330307006836 187.667541503906 191.490020751953 193.088439941406 191.494598388672 188.091278076172 186.848510742188 162.956619262695 157.884658813477 170.433258056641 155.284927368164 140.992706298828 160.092300415039 163.374740600586 145.609191894531 157.644454956055 191.887924194336 203.207992553711 216.384857177734 217.875900268555 205.678344726562 202.61051940918 181.633392333984 168.564239501953 204.722961425781 222.499374389648 217.773544311523 203.924026489258 188.782928466797 171.188537597656 152.354125976562 189.290878295898 219.176422119141 232.621002197266 243.702239990234 244.872161865234 245.19189453125 245.834014892578 236.261672973633 238.975067138672 238.384735107422 243.768524169922 254.486190795898 259.965576171875 268.204132080078 262.866668701172 264.985717773438 277.321563720703 292.236968994141 304.780731201172 297.061889648438 280.756591796875 284.868835449219 303.293579101562 300.391448974609 298.586212158203 305.930603027344 308.542877197266 301.138793945312 309.564910888672 312.881530761719 319.959533691406 333.294403076172 342.860504150391 370.416625976562 428.102447509766 486.769958496094 481.640655517578 501.336303710938 460.334655761719 447.818969726562 516.256652832031 572.950805664062 622.553527832031 678.810119628906 738.334228515625 684.7041015625 735.60986328125 701.28125 634.872741699219 611.551391601562 676.372436523438 834.308776855469 -3.4e+38 -3.4e+38 -3.4e+38 -3.4e+38 -3.4e+38 -3.4e+38 -3.4e+38 -3.4e+38 -3.4e+38 -3.4e+38 -3.4e+38 -3.4e+38 -3.4e+38 -3.4e+38 -3.4e+38 -3.4e+38 -3.4e+38 -3.4e+38 -3.4e+38 -3.4e+38 -3.4e+38 -3.4e+38 -3.4e+38 -3.4e+38 -3.4e+38 -3.4e+38 -3.4e+38 -3.4e+38 -3.4e+38 -3.4e+38 -3.4e+38 -3.4e+38 -3.4e+38 -3.4e+38 -3.4e+38 -3.4e+38 -3.4e+38 -3.4e+38 -3.4e+38 -3.4e+38 -3.4e+38 -3.4e+38 -3.4e+38 -3.4e+38 -3.4e+38 -3.4e+38 -3.4e+38 -3.4e+38 -3.4e+38 -3.4e+38 -3.4e+38 -3.4e+38 -3.4e+38 -3.4e+38 -3.4e+38 -3.4e+38 -3.4e+38 -3.4e+38 -3.4e+38 -3.4e+38 -3.4e+38
26.7946529388428 117.774742126465 156.488800048828 169.913909912109 173.010025024414 160.759063720703 154.551040649414 113.20532989502 91.30908203125 103.485725402832 131.672760009766 71.5790481567383 69.3742904663086 92.256706237793 94.2541580200195 104.714477539062 138.535903930664 172.52507019043 145.517837524414 110.576675415039 95.6001892089844 83.2089767456055 58.9185066223145 79.7195663452148 115.294479370117 115.899971008301 104.477027893066 84.6607666015625 54.6303596496582 52.7273025512695 55.6103477478027 60.9841346740723 51.898811340332 119.242141723633 128.844039916992 123.629875183105 121.757057189941 131.590026855469 129.368743896484 100.210884094238 63.3474769592285 81.1852035522461 82.3180694580078 66.7267532348633 49.3589401245117 40.9634437561035 43.9209747314453 45.7818489074707 54.9760894775391 43.0903778076172 29.7826976776123 11.8858480453491 13.19105052948 13.0788307189941 13.6870803833008 13.6898412704468 13.9729042053223 14.2302370071411 14.2317171096802 12.1420125961304 24.1950435638428 32.7400398254395 29.3749198913574 35.2095336914062 41.6181297302246 65.498161315918 102.940605163574 89.5247192382812 85.8935394287109 74.9583358764648 86.160514831543 112.449684143066 139.402053833008 150.846984863281 161.397750854492 151.533721923828 130.820770263672 131.169174194336 158.933074951172 186.382797241211 190.851181030273 193.233703613281 196.75910949707 197.98518371582 197.397857666016 199.313751220703 193.366394042969 158.124572753906 167.070129394531 183.448181152344 177.71745300293 164.802627563477 147.973587036133 177.806167602539 175.365600585938 181.793151855469 185.49284362793 199.122604370117 213.845764160156 203.395645141602 191.215484619141 182.151641845703 162.011260986328 199.012603759766 205.16064453125 199.561126708984 208.039245605469 184.023300170898 170.339172363281 143.495086669922 165.778350830078 197.775726318359 199.125305175781 201.432800292969 214.619094848633 225.116271972656 238.462783813477 230.41911315918 223.463439941406 230.419357299805 226.364852905273 241.520065307617 252.74951171875 259.953033447266 260.02978515625 247.550109863281 254.230056762695 276.349212646484 285.156585693359 290.696044921875 276.677642822266 275.638031005859 286.868347167969 292.728057861328 292.827301025391 295.558135986328 300.657562255859 289.185119628906 293.626922607422 307.911285400391 315.344055175781 326.892517089844 334.317016601562 344.834991455078 356.859039306641 395.076232910156 467.791290283203 490.369873046875 542.723693847656 497.556671142578 474.361785888672 567.442138671875 570.438171386719 595.689025878906 673.923217773438 740.758422851562 788.844482421875 869.262573242188 830.13623046875 676.406127929688 626.789367675781 545.498046875 656.644775390625 758.738952636719 -3.4e+38 -3.4e+38 -3.4e+38 -3.4e+38 -3.4e+38 -3.4e+38 -3.4e+38 -3.4e+38 -3.4e+38 -3.4e+38 -3.4e+38 -3.4e+38 -3.4e+38 -3.4e+38 -3.4e+38 -3.4e+38 -3.4e+38 -3.4e+38 -3.4e+38 -3.4e+38 -3.4e+38 -3.4e+38 -3.4e+38 -3.4e+38 -3.4e+38 -3.4e+38 -3.4e+38 -3.4e+38 -3.4e+38 -3.4e+38 -3.4e+38 -3.4e+38 -3.4e+38 -3.4e+38 -3.4e+38 -3.4e+38 -3.4e+38 -3.4e+38 -3.4e+38 -3.4e+38 -3.4e+38 -3.4e+38 -3.4e+38 -3.4e+38 -3.4e+38 -3.4e+38 -3.4e+38 -3.4e+38 -3.4e+38 -3.4e+38 -3.4e+38 -3.4e+38 -3.4e+38 -3.4e+38 -3.4e+38 -3.4e+38 -3.4e+38 -3.4e+38 -3.4e+38 -3.4e+38
35.5933837890625 65.4607696533203 104.664657592773 146.768432617188 171.145706176758 170.771667480469 149.739318847656 126.063972473145 100.753723144531 96.4849166870117 131.66389465332 83.1301727294922 85.7315979003906 76.3636169433594 85.7156829833984 101.973937988281 150.500762939453 164.689865112305 128.142929077148 108.651306152344 110.24430847168 97.9692001342773 63.0163955688477 72.2353515625 90.6322860717773 95.0307083129883 91.1353912353516 91.2086868286133 69.4491806030273 65.8592529296875 71.2470626831055 55.8231315612793 54.1152687072754 88.9768218994141 122.765403747559 112.378433227539 110.275451660156 118.035400390625 107.672157287598 104.959922790527 73.5078125 59.2256507873535 72.497917175293 78.9120025634766 63.1368293762207 40.0556449890137 33.0227127075195 42.7609786987305 56.793041229248 41.429988861084 10.7718744277954 12.5058355331421 12.7479801177979 12.8107213973999 13.5817174911499 13.8204250335693 13.8467855453491 13.6276798248291 11.8276958465576 15.1070919036865 70.7726669311523 108.374435424805 98.081657409668 70.5902633666992 69.4320678710938 53.7892837524414 57.8781204223633 68.4674224853516 75.0540618896484 97.6247024536133 145.017211914062 162.475021362305 151.262786865234 161.976150512695 169.603439331055 171.924652099609 165.951583862305 169.456634521484 152.295776367188 176.036804199219 189.40803527832 192.947479248047 197.021179199219 198.477737426758 200.092300415039 203.942977905273 192.169692993164 160.972229003906 169.441177368164 192.873901367188 196.013412475586 188.790023803711 156.254486083984 202.8427734375 193.113739013672 199.985687255859 193.415725708008 206.416137695312 208.05158996582 188.934494018555 179.824630737305 155.359268188477 177.546295166016 211.486297607422 197.613891601562 173.546020507812 159.050170898438 139.714492797852 136.011932373047 145.057006835938 163.136138916016 175.116271972656 172.893829345703 189.892395019531 207.353775024414 206.887405395508 214.197067260742 207.616714477539 203.100128173828 209.809127807617 219.080841064453 237.929183959961 241.315200805664 245.001235961914 242.89811706543 232.070022583008 251.615051269531 260.947814941406 264.288269042969 269.725433349609 269.072052001953 280.426116943359 286.622497558594 288.672088623047 291.682861328125 289.155151367188 277.779205322266 286.420379638672 299.99853515625 302.566864013672 310.942626953125 314.395538330078 320.21875 335.654876708984 362.048492431641 368.133026123047 389.962677001953 432.228302001953 492.778869628906 522.568420410156 492.810516357422 595.983642578125 678.903442382812 690.310424804688 675.828491210938 714.545288085938 809.49462890625 936.629455566406 858.00048828125 730.299499511719 659.125915527344 603.113647460938 529.900756835938 616.895202636719 689.263244628906 -3.4e+38 -3.4e+38 -3.4e+38 -3.4e+38 -3.4e+38 -3.4e+38 -3.4e+38 -3.4e+38 -3.4e+38 -3.4e+38 -3.4e+38 -3.4e+38 -3.4e+38 -3.4e+38 -3.4e+38 -3.4e+38 -3.4e+38 -3.4e+38 -3.4e+38 -3.4e+38 -3.4e+38 -3.4e+38 -3.4e+38 -3.4e+38 -3.4e+38 -3.4e+38 -3.4e+38 -3.4e+38 -3.4e+38 -3.4e+38 -3.4e+38 -3.4e+38 -3.4e+38 -3.4e+38 -3.4e+38 -3.4e+38 -3.4e+38 -3.4e+38 -3.4e+38 -3.4e+38 -3.4e+38 -3.4e+38 -3.4e+38 -3.4e+38 -3.4e+38 -3.4e+38 -3.4e+38 -3.4e+38 -3.4e+38 -3.4e+38 -3.4e+38 -3.4e+38 -3.4e+38 -3.4e+38 -3.4e+38 -3.4e+38 -3.4e+38 -3.4e+38 -3.4e+38
80.9823913574219 40.1031608581543 45.0374565124512 98.1275863647461 115.462059020996 114.541275024414 151.973129272461 136.411422729492 116.37508392334 117.441116333008 122.83935546875 83.1932373046875 99.8334197998047 106.373374938965 130.310684204102 173.025238037109 172.861557006836 143.231323242188 116.022537231445 99.8461380004883 90.2895431518555 77.6141586303711 63.1374664306641 52.3705139160156 62.6383018493652 67.2988052368164 68.9075012207031 70.1420364379883 79.8111877441406 106.03800201416 131.554290771484 126.320045471191 104.288650512695 74.6208267211914 105.349220275879 94.033073425293 107.505355834961 98.9053726196289 90.3481674194336 86.1775207519531 72.2041549682617 51.4949569702148 71.9695434570312 68.8858261108398 65.3239288330078 43.051944732666 24.7871437072754 42.6855506896973 46.9648208618164 33.3698310852051 10.4309978485107 12.5721807479858 12.6735811233521 12.7696533203125 12.5578126907349 13.3425102233887 13.4066200256348 11.5998811721802 10.2596979141235 40.7972946166992 101.540672302246 144.312896728516 139.807846069336 102.914123535156 137.075302124023 108.462471008301 88.4172821044922 122.777954101562 143.621124267578 120.771286010742 136.469375610352 155.166854858398 168.951141357422 171.423294067383 172.809280395508 177.07470703125 179.457244873047 182.116271972656 178.832641601562 164.706115722656 170.032012939453 188.520568847656 196.462692260742 196.872528076172 198.616134643555 200.518737792969 195.202056884766 189.547164916992 174.46875 180.055572509766 198.049774169922 194.742568969727 160.745758056641 186.608352661133 202.122817993164 200.535064697266 207.363220214844 206.131530761719 199.327255249023 187.926940917969 170.059051513672 145.550521850586 191.070251464844 201.745697021484 170.569213867188 145.742553710938 127.669136047363 142.49836730957 159.507736206055 170.146331787109 176.645172119141 171.488525390625 172.949752807617 189.882614135742 195.115936279297 203.929656982422 214.930480957031 205.135040283203 182.286193847656 180.899337768555 192.512390136719 203.000930786133 202.423446655273 206.816390991211 221.123840332031 237.207244873047 256.976470947266 268.819396972656 271.344512939453 264.144927978516 269.375305175781 283.807495117188 301.652038574219 286.730895996094 276.133819580078 257.505645751953 268.803588867188 286.798889160156 292.695983886719 291.988525390625 307.515930175781 319.670196533203 328.278228759766 381.306030273438 392.807006835938 353.775726318359 351.815460205078 406.868927001953 437.143432617188 510.514099121094 474.685089111328 486.989349365234 657.130432128906 704.6640625 651.441589355469 682.10986328125 727.792053222656 858.939208984375 780.668579101562 747.950500488281 734.204528808594 771.196350097656 624.806884765625 507.258728027344 538.577026367188 650.297729492188 -3.4e+38 -3.4e+38 -3.4e+38 -3.4e+38 -3.4e+38 -3.4e+38 -3.4e+38 -3.4e+38 -3.4e+38 -3.4e+38 -3.4e+38 -3.4e+38 -3.4e+38 -3.4e+38 -3.4e+38 -3.4e+38 -3.4e+38 -3.4e+38 -3.4e+38 -3.4e+38 -3.4e+38 -3.4e+38 -3.4e+38 -3.4e+38 -3.4e+38 -3.4e+38 -3.4e+38 -3.4e+38 -3.4e+38 -3.4e+38 -3.4e+38 -3.4e+38 -3.4e+38 -3.4e+38 -3.4e+38 -3.4e+38 -3.4e+38 -3.4e+38 -3.4e+38 -3.4e+38 -3.4e+38 -3.4e+38 -3.4e+38 -3.4e+38 -3.4e+38 -3.4e+38 -3.4e+38 -3.4e+38 -3.4e+38 -3.4e+38 -3.4e+38 -3.4e+38 -3.4e+38 -3.4e+38 -3.4e+38 -3.4e+38 -3.4e+38 -3.4e+38
93.7064743041992 45.5474967956543 30.2595977783203 49.1187705993652 78.5687561035156 87.668212890625 110.471473693848 129.850814819336 125.482002258301 128.645797729492 135.580490112305 102.462593078613 96.9196014404297 193.105758666992 204.263702392578 200.413208007812 166.13835144043 172.963577270508 127.743659973145 99.7255020141602 82.4984512329102 80.3340835571289 77.941047668457 48.2251663208008 52.6968612670898 50.796142578125 51.0246696472168 61.7545433044434 56.7512092590332 88.6824569702148 122.801536560059 114.656196594238 110.125625610352 62.2504768371582 80.5500869750977 87.8159408569336 99.2686614990234 78.1958618164062 72.050163269043 71.3816680908203 54.4532127380371 41.3527030944824 56.8058624267578 53.783317565918 53.5572776794434 44.0550880432129 34.2203636169434 41.4523773193359 32.5132217407227 14.6329364776611 10.7436656951904 12.2998180389404 12.9689435958862 13.6316385269165 12.8723449707031 13.085976600647 13.1286363601685 17.5173358917236 43.9052352905273 93.9778366088867 134.651901245117 148.093826293945 150.246887207031 131.941375732422 130.879989624023 140.764663696289 110.460342407227 109.299087524414 138.469512939453 149.121063232422 157.33821105957 169.539611816406 171.992813110352 163.414337158203 161.400833129883 170.830062866211 179.069869995117 187.28434753418 191.694076538086 189.561401367188 186.669540405273 189.434936523438 188.232025146484 191.849365234375 196.601211547852 198.804260253906 200.636978149414 202.283065795898 194.843658447266 194.704010009766 201.001510620117 195.142517089844 182.87907409668 169.217666625977 185.971801757812 200.75813293457 209.231948852539 201.723815917969 189.779083251953 180.187942504883 156.253662109375 149.914749145508 187.739562988281 159.469863891602 138.319274902344 166.377700805664 179.848037719727 204.91096496582 224.512176513672 216.336685180664 208.854354858398 196.856170654297 193.982376098633 188.397354125977 195.453018188477 205.120391845703 208.86637878418 187.305084228516 179.470230102539 173.549697875977 183.414077758789 180.728515625 176.216247558594 172.675399780273 200.526748657227 221.5322265625 237.441864013672 244.165054321289 247.600830078125 243.255462646484 262.817626953125 272.991516113281 286.304595947266 277.116851806641 260.545043945312 237.58984375 261.533264160156 285.845581054688 294.686187744141 296.898132324219 312.302276611328 306.522247314453 317.600128173828 383.595672607422 383.775573730469 338.314147949219 341.675628662109 365.640502929688 395.696350097656 417.274108886719 403.544616699219 474.025817871094 558.588745117188 588.593627929688 582.59033203125 592.416625976562 656.469116210938 797.722900390625 846.7373046875 691.738952636719 695.03173828125 728.326721191406 738.239135742188 565.568054199219 504.703948974609 496.867340087891 586.888916015625 -3.4e+38 -3.4e+38 -3.4e+38 -3.4e+38 -3.4e+38 -3.4e+38 -3.4e+38 -3.4e+38 -3.4e+38 -3.4e+38 -3.4e+38 -3.4e+38 -3.4e+38 -3.4e+38 -3.4e+38 -3.4e+38 -3.4e+38 -3.4e+38 -3.4e+38 -3.4e+38 -3.4e+38 -3.4e+38 -3.4e+38 -3.4e+38 -3.4e+38 -3.4e+38 -3.4e+38 -3.4e+38 -3.4e+38 -3.4e+38 -3.4e+38 -3.4e+38 -3.4e+38 -3.4e+38 -3.4e+38 -3.4e+38 -3.4e+38 -3.4e+38 -3.4e+38 -3.4e+38 -3.4e+38 -3.4e+38 -3.4e+38 -3.4e+38 -3.4e+38 -3.4e+38 -3.4e+38 -3.4e+38 -3.4e+38 -3.4e+38 -3.4e+38 -3.4e+38 -3.4e+38 -3.4e+38 -3.4e+38 -3.4e+38 -3.4e+38
65.6019973754883 30.7978649139404 40.0896530151367 44.9912910461426 43.2563171386719 62.5246925354004 88.1598358154297 94.3052597045898 100.141159057617 111.315658569336 129.384201049805 116.285598754883 95.644775390625 126.735076904297 107.42520904541 148.624328613281 134.811553955078 166.585403442383 139.236907958984 124.47811126709 105.304656982422 104.084106445312 97.1360473632812 60.6924324035645 36.5843887329102 37.5435180664062 34.2515525817871 40.8185348510742 45.5675277709961 59.0910530090332 97.1498641967773 102.189636230469 89.3498992919922 49.294116973877 57.9562492370605 86.7285385131836 66.4750823974609 57.9979667663574 59.8820686340332 63.1748046875 62.9069747924805 50.6931381225586 35.0816459655762 38.3120765686035 43.7958679199219 35.0997123718262 28.2062740325928 29.0517711639404 13.4487285614014 11.482536315918 12.4734449386597 12.10511302948 12.5936241149902 17.5826530456543 18.5812816619873 21.7395248413086 27.0033130645752 24.4691677093506 52.7275314331055 116.963424682617 140.914672851562 135.363388061523 138.644027709961 151.111312866211 153.5478515625 150.384475708008 146.109390258789 144.046829223633 151.620635986328 164.392272949219 167.062622070312 163.163940429688 159.036026000977 151.769653320312 168.614151000977 184.402206420898 184.233139038086 178.819183349609 187.026962280273 192.475708007812 191.678451538086 180.607055664062 182.247695922852 191.795135498047 193.806411743164 191.231643676758 189.596038818359 194.284255981445 200.167221069336 203.406341552734 204.573165893555 201.347808837891 201.175765991211 179.113906860352 187.19091796875 202.73567199707 195.28141784668 194.887496948242 196.918731689453 178.735824584961 142.993499755859 136.482452392578 150.982849121094 132.062347412109 141.52961730957 197.651214599609 215.814575195312 227.213684082031 229.327835083008 231.242462158203 222.247970581055 223.657669067383 223.223022460938 215.26203918457 206.610809326172 205.488265991211 191.16569519043 179.331756591797 171.299850463867 169.386199951172 179.114486694336 174.3115234375 166.284362792969 182.032836914062 197.89111328125 207.102340698242 213.35383605957 217.408096313477 218.588317871094 224.699523925781 242.516067504883 240.41584777832 245.058242797852 242.979187011719 238.180145263672 226.668106079102 251.280838012695 270.938751220703 277.299591064453 297.293609619141 300.981048583984 297.247589111328 314.354400634766 344.656372070312 338.094970703125 330.028350830078 342.170043945312 352.577270507812 395.914306640625 386.588165283203 365.244110107422 433.196166992188 489.120086669922 499.473754882812 536.18310546875 534.262145996094 575.43798828125 641.154602050781 758.16845703125 711.189025878906 649.932739257812 664.902770996094 707.671997070312 727.407165527344 637.068725585938 463.5283203125 448.968048095703 499.715270996094 -3.4e+38 -3.4e+38 -3.4e+38 -3.4e+38 -3.4e+38 -3.4e+38 -3.4e+38 -3.4e+38 -3.4e+38 -3.4e+38 -3.4e+38 -3.4e+38 -3.4e+38 -3.4e+38 -3.4e+38 -3.4e+38 -3.4e+38 -3.4e+38 -3.4e+38 -3.4e+38 -3.4e+38 -3.4e+38 -3.4e+38 -3.4e+38 -3.4e+38 -3.4e+38 -3.4e+38 -3.4e+38 -3.4e+38 -3.4e+38 -3.4e+38 -3.4e+38 -3.4e+38 -3.4e+38 -3.4e+38 -3.4e+38 -3.4e+38 -3.4e+38 -3.4e+38 -3.4e+38 -3.4e+38 -3.4e+38 -3.4e+38 -3.4e+38 -3.4e+38 -3.4e+38 -3.4e+38 -3.4e+38 -3.4e+38 -3.4e+38 -3.4e+38 -3.4e+38 -3.4e+38 -3.4e+38 -3.4e+38 -3.4e+38
63.2472534179688 39.6241722106934 35.4322776794434 38.209659576416 59.2278900146484 58.6149711608887 58.6245651245117 68.3465347290039 77.6019668579102 90.6646423339844 115.212852478027 125.968490600586 105.704559326172 87.6238021850586 100.402061462402 112.630744934082 127.723999023438 149.579711914062 126.249481201172 115.823905944824 100.302452087402 87.2704391479492 84.5317764282227 74.1689224243164 70.4412841796875 65.5353851318359 60.7514381408691 40.9943351745605 28.6022472381592 37.1900405883789 33.6779556274414 43.0244064331055 62.9041481018066 54.8969345092773 44.7826538085938 88.6380310058594 59.4274826049805 38.2359085083008 49.7408790588379 55.3146438598633 51.3916397094727 59.7315483093262 40.3853302001953 15.3096027374268 23.2791748046875 23.7240409851074 16.0880279541016 11.2193489074707 10.1694955825806 12.3100471496582 11.6867179870605 11.2249279022217 12.1112813949585 22.9455947875977 29.8297233581543 35.4795227050781 41.8699035644531 30.5538749694824 64.8827514648438 116.753257751465 108.821739196777 93.5705337524414 116.436729431152 129.028045654297 139.308166503906 157.055313110352 157.731216430664 153.609161376953 166.265274047852 171.834915161133 167.267791748047 145.349792480469 141.779281616211 159.591033935547 171.471221923828 180.103988647461 165.599838256836 179.778305053711 184.066116333008 187.442153930664 193.294250488281 176.137924194336 176.026977539062 193.105163574219 187.066345214844 164.560089111328 169.605834960938 186.642211914062 196.785888671875 202.798431396484 193.467697143555 188.619415283203 196.230285644531 192.272216796875 198.178237915039 209.090133666992 197.790786743164 176.491897583008 180.443939208984 160.064529418945 136.638702392578 126.389427185059 131.668365478516 128.029281616211 178.544128417969 213.634811401367 216.894561767578 221.94905090332 212.399826049805 209.313507080078 223.163864135742 241.059692382812 251.52848815918 232.685470581055 206.041656494141 189.458679199219 178.033843994141 171.080673217773 166.949295043945 165.109970092773 176.996383666992 175.428268432617 164.729400634766 182.930252075195 190.871032714844 202.660827636719 201.752792358398 209.516494750977 207.488250732422 201.571304321289 203.517028808594 214.997741699219 217.850799560547 205.109268188477 218.515228271484 221.951690673828 232.915679931641 249.302154541016 259.545288085938 274.775573730469 282.153961181641 295.373077392578 310.563568115234 327.907012939453 320.103179931641 321.588348388672 330.707366943359 364.622406005859 394.610656738281 373.750732421875 352.986755371094 378.164978027344 424.360687255859 485.255584716797 510.660583496094 504.23046875 511.912719726562 558.318115234375 650.044860839844 695.047546386719 616.456665039062 606.817077636719 630.470642089844 659.621826171875 690.189697265625 607.759155273438 442.928985595703 407.125640869141 -3.4e+38 -3.4e+38 -3.4e+38 -3.4e+38 -3.4e+38 -3.4e+38 -3.4e+38 -3.4e+38 -3.4e+38 -3.4e+38 -3.4e+38 -3.4e+38 -3.4e+38 -3.4e+38 -3.4e+38 -3.4e+38 -3.4e+38 -3.4e+38 -3.4e+38 -3.4e+38 -3.4e+38 -3.4e+38 -3.4e+38 -3.4e+38 -3.4e+38 -3.4e+38 -3.4e+38 -3.4e+38 -3.4e+38 -3.4e+38 -3.4e+38 -3.4e+38 -3.4e+38 -3.4e+38 -3.4e+38 -3.4e+38 -3.4e+38 -3.4e+38 -3.4e+38 -3.4e+38 -3.4e+38 -3.4e+38 -3.4e+38 -3.4e+38 -3.4e+38 -3.4e+38 -3.4e+38 -3.4e+38 -3.4e+38 -3.4e+38 -3.4e+38 -3.4e+38 -3.4e+38 -3.4e+38 -3.4e+38 -3.4e+38
56.8224754333496 54.1503295898438 39.9757194519043 39.9543304443359 71.8290023803711 92.459846496582 62.6179809570312 65.0977401733398 81.3680267333984 80.0728759765625 93.2937088012695 107.206336975098 123.641647338867 122.524879455566 128.132125854492 138.224456787109 132.973022460938 118.932189941406 102.247581481934 90.1164245605469 77.4719619750977 64.1063079833984 55.6818962097168 58.0637702941895 80.7921142578125 68.4523162841797 50.8130111694336 49.2853927612305 33.5983963012695 35.6133232116699 58.5282173156738 67.8987350463867 35.4500579833984 40.8897590637207 27.6369514465332 40.9028282165527 47.4484596252441 35.8789482116699 38.1079406738281 45.9545669555664 39.4275856018066 58.4273452758789 54.6058959960938 44.4866676330566 28.7223110198975 9.0502872467041 10.0163860321045 10.7969436645508 10.0503807067871 10.9754495620728 10.8038578033447 10.2446308135986 18.0052394866943 33.4986724853516 39.548885345459 52.3645172119141 60.4965782165527 61.9041938781738 61.1117401123047 68.8742218017578 84.1205902099609 102.809272766113 114.638221740723 124.615249633789 147.761459350586 159.104293823242 149.092224121094 155.690872192383 168.744232177734 165.637313842773 152.738708496094 131.638259887695 133.696884155273 155.946228027344 170.075180053711 162.798461914062 148.863220214844 161.292495727539 174.005187988281 192.614730834961 190.09619140625 167.449157714844 169.645111083984 171.873352050781 158.721557617188 162.343856811523 180.980255126953 193.527694702148 203.417953491211 194.081665039062 181.183715820312 181.358871459961 183.918685913086 187.307647705078 199.048324584961 192.110855102539 188.365798950195 176.241897583008 156.829071044922 145.433654785156 132.564376831055 121.257034301758 115.56420135498 147.13264465332 199.189102172852 192.70068359375 190.455749511719 197.595031738281 203.737930297852 218.412567138672 227.898788452148 238.091415405273 242.322036743164 236.171249389648 208.258270263672 180.457229614258 172.58708190918 166.770233154297 161.445983886719 163.491500854492 168.867980957031 173.959075927734 163.588256835938 175.555297851562 182.917343139648 199.084838867188 190.897689819336 186.09619140625 194.978256225586 212.237121582031 227.251693725586 218.295104980469 203.94287109375 213.026809692383 211.959503173828 214.792831420898 228.246551513672 224.690856933594 232.136352539062 230.487701416016 256.364685058594 282.175964355469 302.361633300781 309.670837402344 307.251342773438 320.023193359375 332.757965087891 357.083740234375 366.252807617188 348.285339355469 339.724365234375 354.840881347656 376.801605224609 436.539794921875 497.384338378906 492.159027099609 483.201324462891 519.654541015625 556.563171386719 626.507934570312 601.719665527344 550.272766113281 575.869201660156 577.82177734375 602.071533203125 624.234313964844 538.348754882812 418.366729736328 -3.4e+38 -3.4e+38 -3.4e+38 -3.4e+38 -3.4e+38 -3.4e+38 -3.4e+38 -3.4e+38 -3.4e+38 -3.4e+38 -3.4e+38 -3.4e+38 -3.4e+38 -3.4e+38 -3.4e+38 -3.4e+38 -3.4e+38 -3.4e+38 -3.4e+38 -3.4e+38 -3.4e+38 -3.4e+38 -3.4e+38 -3.4e+38 -3.4e+38 -3.4e+38 -3.4e+38 -3.4e+38 -3.4e+38 -3.4e+38 -3.4e+38 -3.4e+38 -3.4e+38 -3.4e+38 -3.4e+38 -3.4e+38 -3.4e+38 -3.4e+38 -3.4e+38 -3.4e+38 -3.4e+38 -3.4e+38 -3.4e+38 -3.4e+38 -3.4e+38 -3.4e+38 -3.4e+38 -3.4e+38 -3.4e+38 -3.4e+38 -3.4e+38 -3.4e+38 -3.4e+38 -3.4e+38 -3.4e+38 -3.4e+38
65.7081069946289 60.9474220275879 43.2844886779785 44.6958694458008 49.5904502868652 86.6761779785156 101.05899810791 67.1050872802734 103.079246520996 109.611763000488 94.4308319091797 94.7882690429688 97.7006912231445 115.130935668945 137.602767944336 157.128402709961 137.676544189453 110.170043945312 98.8475494384766 81.3926162719727 95.0158081054688 85.4850158691406 63.2345275878906 55.119873046875 45.3735160827637 42.5714530944824 61.3533515930176 97.301155090332 93.6765060424805 85.3291244506836 91.4638137817383 77.5815124511719 74.1504211425781 57.331672668457 20.4491062164307 22.3050956726074 15.3935022354126 22.01930809021 31.7748775482178 48.1054229736328 37.1425285339355 50.610523223877 59.0414237976074 64.3141708374023 29.289737701416 6.86605787277222 9.86748790740967 10.5675592422485 9.10087013244629 10.5727043151855 9.60491180419922 14.5793914794922 31.6974945068359 45.4049911499023 50.4236221313477 58.9538688659668 73.2570877075195 107.556816101074 117.64274597168 117.693824768066 114.95679473877 122.445747375488 131.482009887695 135.982772827148 154.280014038086 149.228607177734 141.684860229492 161.239929199219 166.282608032227 165.246917724609 138.569580078125 120.704582214355 116.286293029785 140.153961181641 142.370147705078 136.520065307617 160.643569946289 176.404541015625 184.092483520508 184.966690063477 180.337265014648 155.194763183594 142.195007324219 148.075439453125 161.801651000977 177.994537353516 181.938568115234 191.528030395508 200.631988525391 192.048263549805 167.981399536133 163.410171508789 176.70036315918 191.791030883789 196.63249206543 183.613922119141 172.35221862793 158.394958496094 149.406356811523 132.679275512695 121.771041870117 109.008682250977 115.344291687012 173.142639160156 179.583648681641 168.378204345703 194.945251464844 202.311782836914 217.333053588867 221.42936706543 223.706451416016 231.013229370117 232.420547485352 227.835021972656 201.892684936523 184.526763916016 179.262100219727 167.301574707031 157.696624755859 156.367324829102 159.758773803711 158.113174438477 157.800720214844 174.888702392578 180.03288269043 184.610321044922 179.615417480469 191.345962524414 205.235916137695 220.59797668457 245.112945556641 231.118621826172 214.907958984375 237.157043457031 248.611343383789 245.617568969727 248.080780029297 252.080581665039 244.471496582031 245.925476074219 235.375869750977 253.167587280273 281.060913085938 301.052093505859 313.388671875 319.476776123047 336.818328857422 361.092559814453 334.742095947266 322.474304199219 334.915283203125 347.605895996094 360.376403808594 402.951568603516 471.896392822266 476.531890869141 476.775543212891 461.321319580078 510.654968261719 527.665405273438 596.152648925781 543.65771484375 503.629638671875 564.072875976562 563.025390625 594.860595703125 569.527770996094 -3.4e+38 -3.4e+38 -3.4e+38 -3.4e+38 -3.4e+38 -3.4e+38 -3.4e+38 -3.4e+38 -3.4e+38 -3.4e+38 -3.4e+38 -3.4e+38 -3.4e+38 -3.4e+38 -3.4e+38 -3.4e+38 -3.4e+38 -3.4e+38 -3.4e+38 -3.4e+38 -3.4e+38 -3.4e+38 -3.4e+38 -3.4e+38 -3.4e+38 -3.4e+38 -3.4e+38 -3.4e+38 -3.4e+38 -3.4e+38 -3.4e+38 -3.4e+38 -3.4e+38 -3.4e+38 -3.4e+38 -3.4e+38 -3.4e+38 -3.4e+38 -3.4e+38 -3.4e+38 -3.4e+38 -3.4e+38 -3.4e+38 -3.4e+38 -3.4e+38 -3.4e+38 -3.4e+38 -3.4e+38 -3.4e+38 -3.4e+38 -3.4e+38 -3.4e+38 -3.4e+38 -3.4e+38 -3.4e+38 -3.4e+38 -3.4e+38
70.9208145141602 52.0438919067383 58.8360214233398 67.9798889160156 45.1326789855957 65.5082931518555 95.5721206665039 74.4482269287109 80.7942428588867 114.225700378418 120.64306640625 122.155288696289 112.450988769531 128.156585693359 155.944900512695 145.867446899414 136.125106811523 129.068740844727 112.867111206055 89.9290466308594 81.6520004272461 87.4492111206055 69.9617919921875 54.299919128418 75.5866546630859 104.157424926758 111.937843322754 116.338081359863 105.859191894531 92.627311706543 78.9783935546875 70.1528701782227 60.3715286254883 44.8840293884277 50.4034309387207 79.4530639648438 49.1690444946289 10.026834487915 26.0964736938477 47.9489402770996 38.6301307678223 51.4463844299316 47.7671089172363 61.5930099487305 11.5574998855591 8.11942291259766 9.57317924499512 8.86645126342773 9.18771553039551 9.73070049285889 8.77742481231689 20.4466781616211 37.2030143737793 46.4702529907227 51.8129920959473 67.7903289794922 85.6614227294922 108.325454711914 121.726066589355 125.78475189209 128.32275390625 133.751007080078 135.566879272461 140.710601806641 143.680755615234 136.500228881836 137.71174621582 149.736053466797 150.793304443359 154.372467041016 139.252716064453 115.11270904541 112.903854370117 131.619079589844 133.294631958008 155.740280151367 171.23828125 181.578857421875 184.654022216797 169.104049682617 155.542205810547 136.072158813477 133.377807617188 166.250381469727 182.953994750977 181.785140991211 186.522644042969 192.862594604492 195.500534057617 196.918365478516 167.098709106445 159.320510864258 188.833068847656 194.087493896484 192.35368347168 195.185623168945 182.731231689453 165.476089477539 137.631530761719 123.087112426758 112.916320800781 105.625007629395 139.158248901367 158.298309326172 154.828460693359 171.590713500977 195.23649597168 214.460037231445 211.056762695312 210.304962158203 220.379653930664 229.311813354492 224.085388183594 217.409606933594 203.028213500977 193.99235534668 198.447189331055 179.917022705078 167.501861572266 155.641357421875 160.102951049805 152.825378417969 164.576171875 169.979446411133 165.533050537109 176.132537841797 186.57698059082 215.502090454102 216.599075317383 215.202255249023 229.631423950195 240.903015136719 228.233810424805 217.531936645508 231.126983642578 249.54118347168 267.676574707031 276.901031494141 276.443084716797 270.852630615234 250.383865356445 244.272262573242 264.217498779297 287.401794433594 300.9033203125 310.580413818359 317.114532470703 324.518768310547 310.552124023438 317.450256347656 328.229309082031 343.123626708984 362.643676757812 384.356811523438 423.522827148438 462.844604492188 485.31396484375 443.270080566406 457.338256835938 491.999633789062 511.760375976562 543.756530761719 486.831420898438 500.639495849609 564.119201660156 543.489929199219 566.07861328125 -3.4e+38 -3.4e+38 -3.4e+38 -3.4e+38 -3.4e+38 -3.4e+38 -3.4e+38 -3.4e+38 -3.4e+38 -3.4e+38 -3.4e+38 -3.4e+38 -3.4e+38 -3.4e+38 -3.4e+38 -3.4e+38 -3.4e+38 -3.4e+38 -3.4e+38 -3.4e+38 -3.4e+38 -3.4e+38 -3.4e+38 -3.4e+38 -3.4e+38 -3.4e+38 -3.4e+38 -3.4e+38 -3.4e+38 -3.4e+38 -3.4e+38 -3.4e+38 -3.4e+38 -3.4e+38 -3.4e+38 -3.4e+38 -3.4e+38 -3.4e+38 -3.4e+38 -3.4e+38 -3.4e+38 -3.4e+38 -3.4e+38 -3.4e+38 -3.4e+38 -3.4e+38 -3.4e+38 -3.4e+38 -3.4e+38 -3.4e+38 -3.4e+38 -3.4e+38 -3.4e+38 -3.4e+38 -3.4e+38 -3.4e+38 -3.4e+38
88.3398056030273 68.6851959228516 93.8383636474609 91.1474456787109 64.3890914916992 55.3107452392578 85.3939666748047 105.20938873291 83.0724639892578 89.1795043945312 111.229507446289 120.905738830566 135.620468139648 155.272338867188 177.676712036133 130.645263671875 114.670097351074 106.166511535645 121.011871337891 100.213226318359 90.2445983886719 71.874397277832 63.2378692626953 74.0374069213867 91.1258544921875 103.2890625 105.446578979492 98.1759567260742 100.945251464844 88.3874435424805 79.0845489501953 71.7921524047852 41.7677536010742 34.6836051940918 59.0318222045898 74.8068389892578 79.8777694702148 47.148494720459 10.7249298095703 41.2560043334961 41.2440872192383 31.4023838043213 68.3957061767578 82.7274475097656 11.7414512634277 6.77703475952148 8.45722007751465 8.97030735015869 9.53493499755859 8.90245723724365 10.9415102005005 17.3006114959717 31.5098876953125 46.4886283874512 48.0160255432129 56.3738136291504 92.3939971923828 119.560409545898 121.811531066895 121.277603149414 127.875579833984 135.594299316406 130.627639770508 129.794830322266 131.660781860352 126.295318603516 140.761383056641 136.181823730469 150.5576171875 141.081909179688 125.001129150391 103.41130065918 118.27645111084 160.865585327148 164.430709838867 170.88932800293 176.962463378906 165.777618408203 171.813186645508 147.058517456055 128.934646606445 140.767105102539 174.661819458008 177.319854736328 185.309967041016 184.362106323242 180.611694335938 183.323608398438 190.902786254883 186.944107055664 163.015686035156 163.667922973633 191.189392089844 182.154190063477 185.781326293945 190.021286010742 183.782318115234 160.613357543945 128.146362304688 117.718292236328 104.386581420898 109.795677185059 134.117004394531 150.610336303711 184.235122680664 201.313262939453 207.043884277344 202.790832519531 202.974258422852 218.16423034668 226.004135131836 220.592025756836 211.697891235352 213.136505126953 199.356002807617 193.626342773438 191.655303955078 195.226089477539 196.897598266602 172.598480224609 163.115173339844 155.496444702148 167.072952270508 155.211898803711 165.374420166016 187.38801574707 205.494445800781 220.336349487305 232.201370239258 239.928695678711 236.445571899414 244.525817871094 282.920715332031 256.311065673828 232.158340454102 229.614562988281 251.409393310547 270.904846191406 284.702423095703 285.960083007812 260.743804931641 268.882232666016 273.926666259766 267.188751220703 282.353454589844 289.0634765625 288.857208251953 296.934448242188 314.944183349609 318.311767578125 322.462951660156 331.153900146484 357.922180175781 390.310180664062 404.576446533203 444.881561279297 473.733673095703 450.514709472656 424.502227783203 432.44091796875 444.225067138672 486.300109863281 488.368560791016 462.621643066406 501.174774169922 542.911987304688 514.731201171875 500.071014404297 -3.4e+38 -3.4e+38 -3.4e+38 -3.4e+38 -3.4e+38 -3.4e+38 -3.4e+38 -3.4e+38 -3.4e+38 -3.4e+38 -3.4e+38 -3.4e+38 -3.4e+38 -3.4e+38 -3.4e+38 -3.4e+38 -3.4e+38 -3.4e+38 -3.4e+38 -3.4e+38 -3.4e+38 -3.4e+38 -3.4e+38 -3.4e+38 -3.4e+38 -3.4e+38 -3.4e+38 -3.4e+38 -3.4e+38 -3.4e+38 -3.4e+38 -3.4e+38 -3.4e+38 -3.4e+38 -3.4e+38 -3.4e+38 -3.4e+38 -3.4e+38 -3.4e+38 -3.4e+38 -3.4e+38 -3.4e+38 -3.4e+38 -3.4e+38 -3.4e+38 -3.4e+38 -3.4e+38 -3.4e+38 -3.4e+38 -3.4e+38 -3.4e+38 -3.4e+38 -3.4e+38 -3.4e+38 -3.4e+38 -3.4e+38
93.457389831543 64.3707656860352 93.5875549316406 112.567993164062 90.1672668457031 58.4654846191406 94.1660079956055 106.739334106445 112.197479248047 100.432693481445 100.487358093262 118.071220397949 140.417358398438 198.478149414062 178.928558349609 132.990753173828 111.380348205566 89.245849609375 101.714508056641 98.9719696044922 94.6065673828125 86.3238906860352 78.1100540161133 73.9163436889648 67.9232788085938 67.5602035522461 86.884407043457 96.5768280029297 83.2701416015625 76.4493255615234 62.917308807373 53.4100799560547 50.3829193115234 54.1049652099609 52.7408790588379 68.6079330444336 78.234245300293 72.7957229614258 22.6831951141357 22.5875568389893 36.5195159912109 32.1729850769043 88.4981002807617 87.3290557861328 12.201831817627 8.90392017364502 9.42913818359375 8.96225547790527 8.0051441192627 8.3532247543335 19.1434936523438 22.1797199249268 19.5169048309326 31.8463153839111 36.3365440368652 43.492000579834 55.0241088867188 72.5138244628906 88.2043380737305 110.465850830078 126.955612182617 122.118263244629 115.689453125 109.901336669922 121.877212524414 110.537841796875 114.325424194336 124.139518737793 142.91096496582 125.556953430176 101.76602935791 107.279930114746 133.933212280273 153.7744140625 148.42170715332 164.227569580078 155.274490356445 145.469802856445 142.003768920898 121.236724853516 121.138793945312 163.669586181641 181.337539672852 170.137420654297 163.27229309082 161.461837768555 170.597671508789 185.894119262695 184.06103515625 172.895004272461 152.570831298828 170.352645874023 184.954223632812 174.644287109375 186.329132080078 177.469375610352 172.181030273438 142.258377075195 118.344535827637 106.421226501465 127.371192932129 167.923110961914 168.405380249023 157.72590637207 173.562606811523 187.215850830078 190.170059204102 184.234649658203 193.381500244141 198.004547119141 204.272872924805 204.68391418457 208.873596191406 211.604858398438 209.27912902832 195.467254638672 190.231109619141 203.752548217773 207.241348266602 180.425857543945 158.390060424805 154.9169921875 153.868225097656 168.384963989258 179.598526000977 182.483261108398 192.126495361328 197.799179077148 215.662963867188 235.915924072266 248.765075683594 245.156463623047 284.208709716797 286.014801025391 266.6904296875 255.816680908203 247.343063354492 248.633499145508 271.311828613281 289.694519042969 277.912292480469 268.684967041016 292.769287109375 285.497741699219 280.880126953125 284.703216552734 290.345306396484 297.905822753906 307.267211914062 306.990203857422 323.743438720703 344.475250244141 396.930328369141 420.373687744141 396.615264892578 403.55029296875 441.550903320312 429.612854003906 413.541290283203 382.652252197266 391.482788085938 423.280334472656 432.892395019531 442.408905029297 470.065551757812 497.739837646484 525.227111816406 -3.4e+38 -3.4e+38 -3.4e+38 -3.4e+38 -3.4e+38 -3.4e+38 -3.4e+38 -3.4e+38 -3.4e+38 -3.4e+38 -3.4e+38 -3.4e+38 -3.4e+38 -3.4e+38 -3.4e+38 -3.4e+38 -3.4e+38 -3.4e+38 -3.4e+38 -3.4e+38 -3.4e+38 -3.4e+38 -3.4e+38 -3.4e+38 -3.4e+38 -3.4e+38 -3.4e+38 -3.4e+38 -3.4e+38 -3.4e+38 -3.4e+38 -3.4e+38 -3.4e+38 -3.4e+38 -3.4e+38 -3.4e+38 -3.4e+38 -3.4e+38 -3.4e+38 -3.4e+38 -3.4e+38 -3.4e+38 -3.4e+38 -3.4e+38 -3.4e+38 -3.4e+38 -3.4e+38 -3.4e+38 -3.4e+38 -3.4e+38 -3.4e+38 -3.4e+38 -3.4e+38 -3.4e+38 -3.4e+38 -3.4e+38 -3.4e+38
94.8366012573242 74.7666854858398 81.4748840332031 104.626136779785 91.5726776123047 63.124828338623 90.2937545776367 97.0669174194336 103.989616394043 116.006820678711 134.616546630859 128.5693359375 179.849685668945 248.982620239258 225.007385253906 228.166778564453 127.348609924316 85.0529861450195 79.3733673095703 84.0104827880859 103.763648986816 83.6366882324219 72.285530090332 59.4089317321777 53.9608001708984 45.709903717041 44.6348724365234 65.3001403808594 69.1386642456055 55.0897026062012 64.8627777099609 83.5863265991211 72.5605773925781 56.8147964477539 46.4382171630859 64.7897872924805 79.0434494018555 83.4525451660156 49.0475959777832 10.692479133606 17.5501136779785 18.3448314666748 63.5769538879395 42.9657173156738 7.34469509124756 9.43771934509277 8.57720756530762 7.57501316070557 10.3495645523071 12.7059497833252 22.2392673492432 31.1256294250488 34.013599395752 37.585620880127 47.8354110717773 64.521125793457 83.5510406494141 81.3009414672852 66.6460189819336 75.4745788574219 100.833541870117 91.3915634155273 84.7223358154297 88.7715911865234 98.953010559082 109.146682739258 112.49072265625 112.338508605957 107.10514831543 96.5776062011719 117.733474731445 144.623596191406 155.190383911133 136.981109619141 144.258987426758 135.23420715332 122.823516845703 110.447280883789 108.394721984863 122.374084472656 126.826545715332 138.237457275391 154.779968261719 148.687683105469 163.201690673828 173.651870727539 185.205032348633 172.248474121094 176.166473388672 159.468627929688 148.439666748047 168.847854614258 176.587432861328 167.691482543945 179.528427124023 165.284622192383 153.054733276367 124.977661132812 111.316535949707 104.28564453125 148.154968261719 174.839538574219 183.276397705078 186.722122192383 186.393417358398 180.206954956055 181.595474243164 192.718780517578 196.13981628418 207.234069824219 203.50732421875 208.375015258789 215.248001098633 233.806381225586 235.046951293945 213.489120483398 188.300796508789 189.225006103516 195.204437255859 177.562210083008 155.161010742188 164.548202514648 171.644470214844 173.536437988281 175.306381225586 181.529998779297 196.384628295898 208.72770690918 204.685363769531 223.481353759766 261.451873779297 273.480346679688 261.633911132812 278.915435791016 285.829620361328 275.386413574219 273.478729248047 277.042663574219 282.797546386719 294.605987548828 296.815277099609 275.304473876953 287.166961669922 300.249694824219 293.697662353516 289.242095947266 298.818084716797 294.361236572266 297.266845703125 311.699645996094 330.036163330078 348.945922851562 392.69482421875 407.102966308594 387.65185546875 372.34228515625 387.562194824219 397.628784179688 389.375885009766 374.895812988281 400.340972900391 419.872894287109 407.375305175781 404.238677978516 447.098358154297 480.386413574219 481.508941650391 528.153381347656 -3.4e+38 -3.4e+38 -3.4e+38 -3.4e+38 -3.4e+38 -3.4e+38 -3.4e+38 -3.4e+38 -3.4e+38 -3.4e+38 -3.4e+38 -3.4e+38 -3.4e+38 -3.4e+38 -3.4e+38 -3.4e+38 -3.4e+38 -3.4e+38 -3.4e+38 -3.4e+38 -3.4e+38 -3.4e+38 -3.4e+38 -3.4e+38 -3.4e+38 -3.4e+38 -3.4e+38 -3.4e+38 -3.4e+38 -3.4e+38 -3.4e+38 -3.4e+38 -3.4e+38 -3.4e+38 -3.4e+38 -3.4e+38 -3.4e+38 -3.4e+38 -3.4e+38 -3.4e+38 -3.4e+38 -3.4e+38 -3.4e+38 -3.4e+38 -3.4e+38 -3.4e+38 -3.4e+38 -3.4e+38 -3.4e+38 -3.4e+38 -3.4e+38 -3.4e+38 -3.4e+38 -3.4e+38 -3.4e+38 -3.4e+38
111.656753540039 89.6332015991211 96.5590209960938 123.577415466309 103.644271850586 74.8046188354492 66.7710342407227 78.2070999145508 86.3936233520508 116.369812011719 158.838104248047 198.227020263672 278.645141601562 333.901885986328 296.646026611328 210.989410400391 103.279518127441 132.685501098633 119.157722473145 84.4235382080078 85.9143142700195 82.2369155883789 69.656364440918 52.7191848754883 59.8981971740723 76.4918060302734 72.8531112670898 74.764045715332 66.6525268554688 84.5457229614258 89.7770462036133 96.2545700073242 77.0364379882812 64.4169311523438 56.0626068115234 55.9580955505371 67.2617340087891 75.8873138427734 78.5953369140625 31.9288940429688 5.15185976028442 20.0375747680664 28.7177295684814 8.74250030517578 8.48536014556885 8.40108966827393 7.3894739151001 9.37438488006592 19.4396514892578 20.5438957214355 28.1495456695557 35.5045127868652 45.2280426025391 48.3041152954102 56.0463218688965 93.4602661132812 108.962120056152 110.847541809082 98.5199508666992 84.5118789672852 70.481086730957 84.661750793457 103.875953674316 119.084197998047 126.637413024902 115.159889221191 98.887092590332 82.9188385009766 91.755859375 109.762191772461 134.826522827148 154.216934204102 152.694229125977 126.904403686523 120.830215454102 100.177871704102 101.432540893555 126.125663757324 146.270690917969 165.501586914062 160.398193359375 150.232559204102 136.484909057617 155.608169555664 176.135604858398 191.240325927734 188.725540161133 174.767044067383 157.919387817383 151.488098144531 138.256912231445 161.526077270508 168.255157470703 162.433944702148 177.660614013672 151.321884155273 135.65690612793 118.186256408691 103.786415100098 136.654983520508 163.696273803711 177.4892578125 183.730560302734 183.351196289062 176.752258300781 181.234893798828 189.631790161133 193.5576171875 195.328033447266 205.385971069336 214.408554077148 219.41145324707 198.321975708008 209.272537231445 223.689926147461 220.303070068359 197.460845947266 178.257995605469 183.113510131836 172.070190429688 161.035308837891 165.205383300781 188.332778930664 187.734375 181.512176513672 185.618576049805 208.723129272461 230.840713500977 223.627883911133 227.699462890625 258.548583984375 308.132568359375 295.056884765625 286.282775878906 291.164947509766 284.494873046875 289.051879882812 317.820831298828 315.525451660156 289.21337890625 300.696502685547 302.684783935547 283.147674560547 296.603851318359 304.244598388672 304.091094970703 303.5078125 297.252777099609 303.184692382812 313.025268554688 329.643615722656 341.03271484375 359.005065917969 366.773101806641 381.143310546875 365.204772949219 363.622131347656 370.893005371094 360.577056884766 368.762329101562 411.637420654297 465.631988525391 460.724517822266 410.124359130859 406.220703125 449.286895751953 468.650177001953 485.370910644531 -3.4e+38 -3.4e+38 -3.4e+38 -3.4e+38 -3.4e+38 -3.4e+38 -3.4e+38 -3.4e+38 -3.4e+38 -3.4e+38 -3.4e+38 -3.4e+38 -3.4e+38 -3.4e+38 -3.4e+38 -3.4e+38 -3.4e+38 -3.4e+38 -3.4e+38 -3.4e+38 -3.4e+38 -3.4e+38 -3.4e+38 -3.4e+38 -3.4e+38 -3.4e+38 -3.4e+38 -3.4e+38 -3.4e+38 -3.4e+38 -3.4e+38 -3.4e+38 -3.4e+38 -3.4e+38 -3.4e+38 -3.4e+38 -3.4e+38 -3.4e+38 -3.4e+38 -3.4e+38 -3.4e+38 -3.4e+38 -3.4e+38 -3.4e+38 -3.4e+38 -3.4e+38 -3.4e+38 -3.4e+38 -3.4e+38 -3.4e+38 -3.4e+38 -3.4e+38 -3.4e+38 -3.4e+38 -3.4e+38 -3.4e+38
117.129806518555 93.2722091674805 113.383567810059 130.078643798828 110.251052856445 89.6234359741211 74.9654693603516 102.473419189453 112.44116973877 126.997512817383 192.613479614258 313.583343505859 344.878051757812 391.886138916016 315.833160400391 140.020477294922 120.298812866211 141.565841674805 124.146423339844 94.7304077148438 74.9548416137695 83.4402236938477 64.0996627807617 70.536376953125 76.6049957275391 77.4400634765625 68.5906448364258 63.021598815918 62.898868560791 98.7789001464844 98.6368713378906 95.2852249145508 78.7137985229492 72.3963470458984 74.2751998901367 60.8233299255371 63.7110939025879 60.765251159668 68.1803359985352 55.9864234924316 12.7907876968384 9.19576644897461 8.51993465423584 6.98377656936646 8.79445648193359 7.8431978225708 7.71352624893188 13.6759366989136 22.7839832305908 32.913990020752 36.5258598327637 41.1365356445312 45.9928092956543 55.423770904541 70.2103958129883 101.261978149414 116.991020202637 123.228820800781 117.000900268555 118.34684753418 112.088180541992 94.4462051391602 118.345703125 139.914245605469 118.471153259277 99.2935180664062 83.283073425293 105.181106567383 132.152893066406 138.872940063477 140.870208740234 141.460556030273 133.396896362305 117.880233764648 98.4952239990234 119.925109863281 137.473190307617 163.066299438477 163.309967041016 153.842895507812 158.434219360352 173.005294799805 164.874786376953 165.156341552734 179.34700012207 186.117614746094 181.126098632812 173.446716308594 166.86083984375 137.024597167969 121.182060241699 151.622802734375 146.500473022461 165.38493347168 166.806716918945 143.82341003418 123.172355651855 112.691703796387 96.7202606201172 123.356468200684 141.777008056641 153.100250244141 158.467956542969 164.210083007812 170.139541625977 190.305358886719 203.188674926758 194.833435058594 191.554840087891 201.119430541992 208.337799072266 209.84880065918 179.279632568359 167.988998413086 189.708862304688 211.634872436523 197.905532836914 177.45849609375 171.241989135742 176.326019287109 165.115112304688 168.309600830078 194.313766479492 198.937271118164 201.248992919922 200.993072509766 209.759994506836 227.598678588867 238.9267578125 238.585525512695 253.468505859375 284.17333984375 296.577606201172 304.681091308594 299.467712402344 287.697082519531 285.271545410156 314.057708740234 323.389129638672 300.462921142578 309.956024169922 310.492462158203 303.597747802734 295.739807128906 302.5234375 321.730682373047 318.3193359375 302.949890136719 297.7373046875 308.61181640625 326.853210449219 351.845611572266 374.065490722656 357.056762695312 377.834075927734 365.464660644531 348.194488525391 347.950744628906 352.515441894531 363.542602539062 371.060882568359 398.215606689453 412.908264160156 404.132537841797 394.548370361328 467.361877441406 492.445281982422 480.584777832031 451.619415283203 -3.4e+38 -3.4e+38 -3.4e+38 -3.4e+38 -3.4e+38 -3.4e+38 -3.4e+38 -3.4e+38 -3.4e+38 -3.4e+38 -3.4e+38 -3.4e+38 -3.4e+38 -3.4e+38 -3.4e+38 -3.4e+38 -3.4e+38 -3.4e+38 -3.4e+38 -3.4e+38 -3.4e+38 -3.4e+38 -3.4e+38 -3.4e+38 -3.4e+38 -3.4e+38 -3.4e+38 -3.4e+38 -3.4e+38 -3.4e+38 -3.4e+38 -3.4e+38 -3.4e+38 -3.4e+38 -3.4e+38 -3.4e+38 -3.4e+38 -3.4e+38 -3.4e+38 -3.4e+38 -3.4e+38 -3.4e+38 -3.4e+38 -3.4e+38 -3.4e+38 -3.4e+38 -3.4e+38 -3.4e+38 -3.4e+38 -3.4e+38 -3.4e+38 -3.4e+38 -3.4e+38 -3.4e+38 -3.4e+38
117.761650085449 123.252479553223 123.802978515625 119.215087890625 102.607879638672 102.686813354492 87.3973693847656 118.564086914062 155.86442565918 216.496551513672 297.029693603516 449.475067138672 391.579193115234 393.335784912109 238.764038085938 135.662567138672 141.828094482422 114.886329650879 95.6341857910156 86.5254058837891 70.2132415771484 59.0968551635742 72.7761535644531 78.0976257324219 62.9920196533203 62.3330078125 67.2573013305664 71.3713226318359 86.1530075073242 92.2809677124023 112.335250854492 109.242568969727 89.8259735107422 68.5999450683594 66.0967559814453 71.8570251464844 65.4773712158203 68.1350021362305 48.1353988647461 38.1791381835938 9.60400867462158 5.55903673171997 7.87415218353271 7.49093914031982 8.56116962432861 7.77398872375488 10.0394020080566 16.9160404205322 29.0839900970459 41.2798843383789 44.101505279541 43.4693870544434 50.3972015380859 61.9761199951172 85.2209701538086 100.984794616699 113.917839050293 117.146148681641 102.762985229492 110.187896728516 109.726463317871 107.709396362305 118.826766967773 119.335563659668 105.878074645996 84.5064315795898 86.7230072021484 117.425117492676 129.573394775391 138.841400146484 137.773406982422 118.466659545898 98.7914123535156 90.8994903564453 105.671493530273 123.100952148438 133.554138183594 138.826782226562 138.705993652344 154.957412719727 172.816146850586 176.552612304688 183.236450195312 180.511215209961 174.003265380859 179.109588623047 180.790344238281 164.257019042969 151.153610229492 137.436340332031 114.693023681641 117.417198181152 144.301345825195 173.337677001953 155.048126220703 127.060691833496 116.667846679688 106.184242248535 103.684684753418 151.648864746094 154.087188720703 161.025100708008 175.626327514648 189.073822021484 196.148651123047 194.753387451172 200.596633911133 202.734603881836 202.044799804688 203.011840820312 204.023880004883 201.70588684082 192.710784912109 160.772338867188 155.798492431641 179.213256835938 194.848037719727 185.509552001953 162.270874023438 157.757415771484 161.927093505859 170.885406494141 183.321975708008 189.508331298828 195.854751586914 201.152084350586 208.400329589844 216.749557495117 231.645538330078 233.368789672852 241.592315673828 257.782318115234 276.648773193359 306.858856201172 318.513549804688 303.335571289062 292.233367919922 301.593933105469 325.946716308594 307.668701171875 318.141357421875 326.395965576172 321.626647949219 320.839508056641 312.214813232422 325.027160644531 326.028869628906 312.840362548828 305.962646484375 304.314392089844 309.325042724609 326.767547607422 339.515869140625 347.310119628906 378.06298828125 379.284454345703 360.944580078125 335.195648193359 349.654113769531 345.288970947266 356.050598144531 378.78662109375 389.584014892578 361.96728515625 377.4248046875 428.432434082031 461.906066894531 471.592895507812 443.567443847656 421.491149902344 -3.4e+38 -3.4e+38 -3.4e+38 -3.4e+38 -3.4e+38 -3.4e+38 -3.4e+38 -3.4e+38 -3.4e+38 -3.4e+38 -3.4e+38 -3.4e+38 -3.4e+38 -3.4e+38 -3.4e+38 -3.4e+38 -3.4e+38 -3.4e+38 -3.4e+38 -3.4e+38 -3.4e+38 -3.4e+38 -3.4e+38 -3.4e+38 -3.4e+38 -3.4e+38 -3.4e+38 -3.4e+38 -3.4e+38 -3.4e+38 -3.4e+38 -3.4e+38 -3.4e+38 -3.4e+38 -3.4e+38 -3.4e+38 -3.4e+38 -3.4e+38 -3.4e+38 -3.4e+38 -3.4e+38 -3.4e+38 -3.4e+38 -3.4e+38 -3.4e+38 -3.4e+38 -3.4e+38 -3.4e+38 -3.4e+38 -3.4e+38 -3.4e+38 -3.4e+38 -3.4e+38 -3.4e+38
101.695335388184 107.462112426758 123.345252990723 138.755004882812 115.603416442871 105.116233825684 108.173316955566 160.051528930664 234.632217407227 406.620971679688 490.414825439453 544.932556152344 502.796295166016 279.38525390625 150.834701538086 165.997222900391 138.89323425293 104.292762756348 100.311935424805 90.4323959350586 78.5085372924805 70.3249664306641 73.0696868896484 69.3273086547852 72.4090881347656 98.6945114135742 109.843650817871 112.439170837402 110.032264709473 103.164367675781 114.231399536133 110.900657653809 85.5447387695312 64.7179565429688 51.045970916748 56.834659576416 65.6247940063477 72.4533233642578 74.3200912475586 33.4933471679688 2.91023302078247 6.10342597961426 7.18715572357178 6.75958919525146 8.50382328033447 7.45062303543091 12.597508430481 24.1825923919678 33.8237152099609 42.4281120300293 48.5935363769531 51.48779296875 59.6560592651367 79.2292251586914 97.4686965942383 112.971954345703 106.594276428223 103.406021118164 88.2116775512695 96.1666870117188 86.2416381835938 76.4663391113281 70.8923034667969 70.8503723144531 79.1978225708008 72.8771896362305 81.0433807373047 87.063362121582 104.091659545898 107.874214172363 115.079231262207 93.1682968139648 95.0705032348633 106.69206237793 118.460990905762 133.934310913086 147.597320556641 156.039657592773 161.904632568359 165.263198852539 167.262023925781 176.569046020508 183.655181884766 167.709732055664 163.626892089844 177.403656005859 167.949462890625 171.471588134766 160.542388916016 156.21354675293 133.956024169922 108.729248046875 141.565551757812 162.023727416992 143.906372070312 117.354232788086 109.48397064209 94.4415588378906 127.508308410645 174.744552612305 162.985488891602 155.948028564453 163.197708129883 165.212219238281 176.872161865234 190.720062255859 196.248245239258 204.307479858398 204.762985229492 202.381927490234 198.717315673828 194.997161865234 198.076721191406 167.497268676758 143.906005859375 147.237091064453 176.088562011719 186.307510375977 155.409393310547 145.740600585938 157.447235107422 178.059005737305 195.440292358398 203.269348144531 197.020294189453 195.777267456055 203.676071166992 217.495758056641 220.576812744141 223.014343261719 240.02946472168 258.905456542969 282.828674316406 320.990173339844 361.530242919922 340.629089355469 308.972106933594 302.321044921875 317.675018310547 312.258850097656 313.196105957031 325.231140136719 334.443176269531 333.89013671875 329.275512695312 346.945251464844 347.219329833984 324.373291015625 310.174377441406 318.472290039062 314.575073242188 321.110534667969 330.299163818359 331.135375976562 342.658966064453 364.537322998047 361.461273193359 341.994384765625 325.013214111328 332.822601318359 358.691284179688 373.557220458984 363.012573242188 346.944732666016 358.921691894531 396.681335449219 432.723541259766 442.666259765625 434.170196533203 417.020538330078 402.152770996094 399.762908935547 -3.4e+38 -3.4e+38 -3.4e+38 -3.4e+38 -3.4e+38 -3.4e+38 -3.4e+38 -3.4e+38 -3.4e+38 -3.4e+38 -3.4e+38 -3.4e+38 -3.4e+38 -3.4e+38 -3.4e+38 -3.4e+38 -3.4e+38 -3.4e+38 -3.4e+38 -3.4e+38 -3.4e+38 -3.4e+38 -3.4e+38 -3.4e+38 -3.4e+38 -3.4e+38 -3.4e+38 -3.4e+38 -3.4e+38 -3.4e+38 -3.4e+38 -3.4e+38 -3.4e+38 -3.4e+38 -3.4e+38 -3.4e+38 -3.4e+38 -3.4e+38 -3.4e+38 -3.4e+38 -3.4e+38 -3.4e+38 -3.4e+38 -3.4e+38 -3.4e+38 -3.4e+38 -3.4e+38 -3.4e+38 -3.4e+38 -3.4e+38 -3.4e+38 -3.4e+38
87.734016418457 95.5592727661133 122.248840332031 131.964630126953 127.286979675293 140.844787597656 202.732513427734 248.683624267578 341.219177246094 478.301513671875 590.232360839844 608.34326171875 473.984375 192.990371704102 106.316078186035 136.251678466797 136.085800170898 93.5957489013672 75.068977355957 68.4701232910156 83.5633697509766 87.9819107055664 88.4033279418945 106.183746337891 102.656120300293 92.8372344970703 87.2355651855469 95.2708511352539 100.632202148438 107.749618530273 109.619522094727 95.8707427978516 76.6587295532227 59.784481048584 54.7371978759766 49.9112701416016 62.8665351867676 67.4454498291016 42.1911430358887 7.51742744445801 4.91284036636353 6.64171361923218 7.16763019561768 6.80671119689941 7.74776744842529 10.347767829895 17.1315670013428 29.0761394500732 39.9330940246582 45.5592842102051 53.2022323608398 59.7046203613281 67.5309066772461 94.3594589233398 108.447525024414 112.453338623047 96.2017288208008 92.3055038452148 79.2499847412109 65.9492340087891 53.0451278686523 57.6700630187988 70.5603485107422 65.9099349975586 69.3123550415039 74.0662536621094 82.6810073852539 80.8933258056641 83.6177597045898 83.0469589233398 83.5336990356445 89.4007415771484 123.921615600586 133.972320556641 118.936111450195 120.971305847168 136.897415161133 150.439590454102 152.109924316406 156.625442504883 171.750061035156 179.423721313477 174.283340454102 155.869857788086 172.746398925781 163.871063232422 159.870666503906 173.319931030273 182.556121826172 167.102630615234 150.693878173828 129.378036499023 110.845573425293 148.246398925781 129.643356323242 109.338790893555 98.8493347167969 103.262496948242 132.50065612793 131.900115966797 147.427352905273 163.161895751953 170.209396362305 182.600982666016 173.006866455078 173.44075012207 191.614044189453 198.93376159668 199.384780883789 196.653045654297 193.777862548828 191.036071777344 197.82258605957 180.182312011719 152.468551635742 140.975143432617 146.888565063477 152.394088745117 149.149978637695 167.573516845703 166.736312866211 185.340362548828 200.526901245117 200.593017578125 198.904312133789 192.826141357422 203.480072021484 216.315582275391 208.085556030273 220.33219909668 228.775756835938 247.561019897461 267.933319091797 290.017730712891 334.344116210938 321.931365966797 333.431121826172 332.805267333984 321.791870117188 317.745758056641 328.090209960938 335.796722412109 337.068389892578 347.282928466797 343.697143554688 343.0146484375 332.876556396484 321.576293945312 314.792572021484 327.905975341797 327.673187255859 321.706817626953 329.380065917969 338.179901123047 349.137969970703 351.510894775391 351.042816162109 333.368804931641 318.803924560547 344.774597167969 361.772125244141 358.860168457031 346.325439453125 335.658843994141 359.354736328125 373.002960205078 403.919647216797 423.231872558594 450.273590087891 430.013000488281 394.65625 392.282989501953 398.562133789062 378.055267333984 365.607757568359 348.372344970703 -3.4e+38 -3.4e+38 -3.4e+38 -3.4e+38 -3.4e+38 -3.4e+38 -3.4e+38 -3.4e+38 -3.4e+38 -3.4e+38 -3.4e+38 -3.4e+38 -3.4e+38 -3.4e+38 -3.4e+38 -3.4e+38 -3.4e+38 -3.4e+38 -3.4e+38 -3.4e+38 -3.4e+38 -3.4e+38 -3.4e+38 -3.4e+38 -3.4e+38 -3.4e+38 -3.4e+38 -3.4e+38 -3.4e+38 -3.4e+38 -3.4e+38 -3.4e+38 -3.4e+38 -3.4e+38 -3.4e+38 -3.4e+38 -3.4e+38 -3.4e+38 -3.4e+38 -3.4e+38 -3.4e+38 -3.4e+38 -3.4e+38 -3.4e+38 -3.4e+38 -3.4e+38 -3.4e+38 -3.4e+38
84.9764404296875 112.21549987793 112.440330505371 104.202430725098 124.360038757324 210.55583190918 294.425933837891 278.840240478516 247.914703369141 262.964202880859 353.2919921875 357.990509033203 246.920715332031 101.16463470459 100.196800231934 115.318099975586 125.664489746094 116.113021850586 105.215751647949 63.5355949401855 64.4145278930664 69.6608505249023 81.2257614135742 91.3241882324219 105.056945800781 109.079574584961 80.7701416015625 71.8509979248047 77.2427749633789 94.543830871582 94.9850082397461 75.1659088134766 62.588565826416 57.0409278869629 48.7475738525391 53.0451850891113 58.4676856994629 34.7693481445312 4.85215902328491 4.28696823120117 6.37966632843018 7.08533668518066 6.28362274169922 7.32279300689697 7.61035060882568 12.5577020645142 21.2177867889404 35.9557609558105 42.7331962585449 50.3904037475586 68.6530685424805 74.224983215332 83.8469543457031 94.1969680786133 93.2927627563477 93.9184799194336 84.6818389892578 64.0160903930664 51.2022933959961 45.9150161743164 63.3471641540527 98.6852340698242 123.445205688477 109.842628479004 122.69441986084 125.592819213867 133.785446166992 132.970474243164 131.291915893555 122.104095458984 126.815849304199 128.134689331055 134.888626098633 150.189682006836 146.572845458984 139.484848022461 142.545394897461 151.092041015625 151.369293212891 161.327926635742 174.433532714844 168.518218994141 152.041519165039 161.974044799805 166.203033447266 153.311080932617 162.084808349609 169.663070678711 184.020004272461 171.090774536133 164.334747314453 147.361618041992 107.492950439453 122.48314666748 103.646408081055 87.3882904052734 92.913948059082 114.307235717773 137.160568237305 162.563827514648 190.957092285156 203.894973754883 210.471099853516 226.251129150391 213.276596069336 191.677871704102 185.823715209961 195.946426391602 191.882141113281 187.387603759766 189.341827392578 200.888702392578 188.920867919922 177.060440063477 158.685119628906 144.857543945312 138.978485107422 149.483795166016 160.059646606445 166.773880004883 172.669784545898 179.658630371094 186.231170654297 186.573959350586 190.030914306641 191.602386474609 204.934677124023 210.551940917969 201.800750732422 211.087997436523 220.470108032227 234.687866210938 249.484954833984 267.391174316406 291.523681640625 285.385009765625 307.598876953125 339.202667236328 338.798706054688 319.696044921875 327.015380859375 338.877166748047 353.433380126953 354.371459960938 339.169708251953 331.801513671875 344.501922607422 340.213653564453 329.446472167969 325.201873779297 337.245147705078 339.431396484375 335.506622314453 335.908355712891 343.572509765625 339.223449707031 333.739349365234 326.619140625 324.484069824219 358.388549804688 336.377685546875 337.855560302734 326.121185302734 329.979858398438 347.803344726562 352.423706054688 364.055053710938 375.973327636719 390.641693115234 402.263671875 405.575042724609 372.009735107422 352.503051757812 348.048736572266 357.817504882812 348.514007568359 349.897918701172 -3.4e+38 -3.4e+38 -3.4e+38 -3.4e+38 -3.4e+38 -3.4e+38 -3.4e+38 -3.4e+38 -3.4e+38 -3.4e+38 -3.4e+38 -3.4e+38 -3.4e+38 -3.4e+38 -3.4e+38 -3.4e+38 -3.4e+38 -3.4e+38 -3.4e+38 -3.4e+38 -3.4e+38 -3.4e+38 -3.4e+38 -3.4e+38 -3.4e+38 -3.4e+38 -3.4e+38 -3.4e+38 -3.4e+38 -3.4e+38 -3.4e+38 -3.4e+38 -3.4e+38 -3.4e+38 -3.4e+38 -3.4e+38 -3.4e+38 -3.4e+38 -3.4e+38 -3.4e+38 -3.4e+38 -3.4e+38 -3.4e+38 -3.4e+38 -3.4e+38 -3.4e+38 -3.4e+38
113.381195068359 105.175895690918 85.7982635498047 115.784515380859 176.777236938477 196.746322631836 229.362548828125 187.140243530273 192.395874023438 166.093444824219 162.171447753906 138.234298706055 104.612434387207 81.3721008300781 101.786758422852 120.022499084473 121.696990966797 136.688247680664 106.72004699707 68.1753616333008 48.5098609924316 47.5996780395508 70.8600692749023 67.9241790771484 72.6603851318359 99.5457992553711 96.5581588745117 79.3775787353516 66.6030120849609 72.198486328125 75.6785125732422 63.4178161621094 50.5181617736816 44.5312614440918 44.2818565368652 46.8855781555176 46.0091896057129 7.25394868850708 3.33550930023193 5.83433771133423 6.84430694580078 6.65001726150513 6.48762559890747 7.20836019515991 9.76894664764404 15.8972940444946 26.0376644134521 37.2252235412598 42.2098236083984 54.2360877990723 77.6520309448242 99.7482299804688 124.581848144531 109.718734741211 90.2643127441406 74.2552719116211 65.8972778320312 46.2117233276367 48.5726776123047 91.591423034668 114.470306396484 114.189147949219 125.738922119141 137.414627075195 145.206848144531 135.254287719727 129.112075805664 142.207702636719 153.247680664062 153.929016113281 145.635650634766 132.394134521484 134.597793579102 140.554748535156 156.480453491211 160.135437011719 163.330032348633 156.931671142578 150.348678588867 167.806823730469 161.000549316406 145.409042358398 148.85270690918 161.779296875 144.340789794922 152.666290283203 156.36784362793 163.637634277344 177.232345581055 182.091079711914 165.227661132812 147.715133666992 110.325477600098 95.7773818969727 81.0235900878906 83.9908447265625 128.585220336914 154.244750976562 165.805786132812 195.290252685547 205.536422729492 219.975784301758 228.055114746094 230.689010620117 230.575134277344 217.213790893555 210.383163452148 198.972732543945 183.215377807617 185.51594543457 196.894470214844 199.230621337891 193.618637084961 167.442260742188 150.976257324219 138.448776245117 144.686325073242 155.018936157227 159.172393798828 168.522811889648 178.989196777344 182.663848876953 180.961212158203 182.53581237793 182.557876586914 187.517456054688 198.009063720703 198.643508911133 199.724273681641 209.522521972656 210.537979125977 222.193069458008 238.851165771484 246.137588500977 254.469039916992 274.643371582031 302.669738769531 315.845031738281 318.267181396484 302.810974121094 312.636932373047 339.042877197266 357.492736816406 350.025299072266 330.588165283203 309.515930175781 337.886444091797 357.330139160156 349.126831054688 341.018981933594 344.5078125 350.846984863281 355.832122802734 355.087280273438 352.922149658203 334.497894287109 317.24072265625 310.618865966797 319.830200195312 348.938934326172 329.182800292969 330.036346435547 329.453399658203 311.478790283203 316.722442626953 329.027801513672 334.657165527344 349.213043212891 335.593719482422 332.719787597656 348.949310302734 362.948577880859 356.765838623047 348.964385986328 324.694946289062 312.386688232422 317.613067626953 -3.4e+38 -3.4e+38 -3.4e+38 -3.4e+38 -3.4e+38 -3.4e+38 -3.4e+38 -3.4e+38 -3.4e+38 -3.4e+38 -3.4e+38 -3.4e+38 -3.4e+38 -3.4e+38 -3.4e+38 -3.4e+38 -3.4e+38 -3.4e+38 -3.4e+38 -3.4e+38 -3.4e+38 -3.4e+38 -3.4e+38 -3.4e+38 -3.4e+38 -3.4e+38 -3.4e+38 -3.4e+38 -3.4e+38 -3.4e+38 -3.4e+38 -3.4e+38 -3.4e+38 -3.4e+38 -3.4e+38 -3.4e+38 -3.4e+38 -3.4e+38 -3.4e+38 -3.4e+38 -3.4e+38 -3.4e+38 -3.4e+38 -3.4e+38 -3.4e+38 -3.4e+38 -3.4e+38
84.4349365234375 79.7150421142578 117.850631713867 164.683868408203 216.664459228516 235.120666503906 217.871490478516 190.998718261719 161.6015625 141.711227416992 112.462333679199 103.339485168457 110.450035095215 83.4240341186523 94.8443298339844 101.549324035645 119.526977539062 117.964363098145 76.1838607788086 55.6063613891602 40.0004653930664 51.835636138916 72.2563934326172 61.7236137390137 62.3967247009277 80.7394027709961 102.070175170898 83.6802978515625 70.221305847168 51.0400123596191 43.8904457092285 51.5404510498047 49.3254013061523 44.7089500427246 33.6352043151855 37.277904510498 26.6241016387939 1.68413305282593 4.93719100952148 6.02267503738403 6.65201282501221 5.97007274627686 6.24482345581055 8.23523426055908 17.5389156341553 19.9641056060791 23.8964233398438 31.0802097320557 37.294002532959 61.2104988098145 93.0186538696289 128.267013549805 143.381622314453 126.02806854248 97.764289855957 72.5233612060547 52.6893997192383 42.6351585388184 81.5685119628906 93.9236450195312 98.5582656860352 110.572929382324 116.22290802002 128.717559814453 127.682281494141 113.903587341309 126.922378540039 133.720138549805 128.623764038086 143.184310913086 126.016845703125 113.491508483887 122.399971008301 132.321487426758 149.008178710938 162.138809204102 161.658752441406 139.722747802734 152.004699707031 167.35725402832 148.819000244141 137.853668212891 154.606460571289 139.047637939453 142.564605712891 144.976455688477 157.670806884766 163.424011230469 169.956619262695 162.233032226562 150.219314575195 129.451553344727 104.89306640625 81.1492691040039 84.6293029785156 133.497619628906 166.307250976562 173.400833129883 173.07649230957 176.082382202148 178.056655883789 182.554351806641 188.799011230469 199.010726928711 206.695251464844 209.613525390625 206.21354675293 197.0927734375 179.294784545898 177.531585693359 182.266540527344 187.657455444336 197.862319946289 178.851745605469 148.444931030273 134.104354858398 151.586761474609 164.091705322266 170.414352416992 174.446273803711 175.821701049805 171.450668334961 173.623306274414 178.012496948242 181.344253540039 188.611175537109 195.118103027344 186.312515258789 198.279739379883 206.699554443359 205.067611694336 228.110443115234 228.223419189453 245.871246337891 260.534759521484 273.704040527344 291.413726806641 308.372650146484 291.476165771484 290.010284423828 297.112731933594 316.467620849609 349.154907226562 335.636596679688 323.905700683594 299.712799072266 300.198699951172 326.868988037109 358.592224121094 352.264434814453 342.795562744141 352.95849609375 356.641723632812 341.005981445312 347.158447265625 345.924499511719 319.343658447266 300.512298583984 300.244201660156 304.085540771484 309.356811523438 312.526245117188 324.246246337891 308.053833007812 298.621459960938 305.160430908203 321.776672363281 345.561614990234 343.781555175781 330.047607421875 310.825073242188 303.226318359375 322.817169189453 344.905578613281 327.685180664062 302.225158691406 308.978698730469 -3.4e+38 -3.4e+38 -3.4e+38 -3.4e+38 -3.4e+38 -3.4e+38 -3.4e+38 -3.4e+38 -3.4e+38 -3.4e+38 -3.4e+38 -3.4e+38 -3.4e+38 -3.4e+38 -3.4e+38 -3.4e+38 -3.4e+38 -3.4e+38 -3.4e+38 -3.4e+38 -3.4e+38 -3.4e+38 -3.4e+38 -3.4e+38 -3.4e+38 -3.4e+38 -3.4e+38 -3.4e+38 -3.4e+38 -3.4e+38 -3.4e+38 -3.4e+38 -3.4e+38 -3.4e+38 -3.4e+38 -3.4e+38 -3.4e+38 -3.4e+38 -3.4e+38 -3.4e+38 -3.4e+38 -3.4e+38 -3.4e+38 -3.4e+38 -3.4e+38 -3.4e+38 -3.4e+38
70.599723815918 134.659484863281 223.234100341797 268.099578857422 335.825988769531 302.033325195312 215.508758544922 175.602737426758 143.1748046875 111.844909667969 110.196548461914 98.8802032470703 92.7590789794922 85.868782043457 73.3097839355469 84.7281265258789 106.321357727051 116.352615356445 66.474853515625 38.1357383728027 33.8639450073242 64.0224380493164 70.2191467285156 57.651969909668 55.9002151489258 78.0771560668945 102.44987487793 86.8001174926758 81.0621948242188 60.2759284973145 48.759204864502 34.7892456054688 31.7185192108154 40.6281471252441 34.041145324707 22.8476886749268 17.7186603546143 2.61604642868042 5.04577445983887 5.78473281860352 5.65212154388428 4.78199052810669 9.0367956161499 18.4208335876465 24.47878074646 23.3637351989746 24.5442676544189 28.1784610748291 34.8889770507812 62.3717346191406 105.208839416504 142.529495239258 126.068725585938 113.117034912109 99.6097106933594 72.5219573974609 45.7022094726562 46.1551971435547 70.8159255981445 84.2450714111328 106.814552307129 104.117698669434 103.763801574707 118.477615356445 98.6887130737305 116.250030517578 134.692977905273 112.878707885742 123.027221679688 116.962249755859 107.056869506836 119.311584472656 141.951843261719 150.407119750977 158.554229736328 160.951110839844 142.615966796875 136.846954345703 164.77033996582 164.486038208008 137.995788574219 135.514984130859 136.654220581055 144.871200561523 167.259567260742 159.403991699219 164.305191040039 168.782745361328 160.421813964844 141.795349121094 141.177032470703 119.908554077148 89.3233337402344 75.3893432617188 109.9755859375 158.897125244141 174.147659301758 158.30046081543 161.125930786133 166.710159301758 164.450805664062 164.781509399414 164.459182739258 170.744338989258 175.243118286133 183.87580871582 187.257247924805 182.386047363281 174.539459228516 167.62028503418 182.414276123047 186.169326782227 181.1201171875 174.613250732422 149.002731323242 134.515274047852 158.730590820312 163.128479003906 161.133239746094 161.253158569336 165.18342590332 171.895080566406 180.449523925781 181.006362915039 184.084716796875 187.346939086914 186.291534423828 180.831451416016 194.032196044922 196.088821411133 207.967651367188 219.233154296875 216.163299560547 231.364868164062 254.246383666992 255.113464355469 278.451019287109 307.952301025391 280.815368652344 277.018829345703 296.144775390625 307.481414794922 349.798675537109 352.531555175781 330.808258056641 314.552612304688 288.525268554688 299.204284667969 314.818725585938 327.534088134766 323.212738037109 341.184020996094 351.117095947266 342.867340087891 321.646423339844 335.483947753906 339.816345214844 321.585052490234 306.326141357422 298.950469970703 285.694030761719 282.370727539062 284.476684570312 293.018859863281 289.230072021484 300.071411132812 315.999267578125 327.926208496094 338.646148681641 352.0478515625 347.173889160156 318.451995849609 298.190521240234 291.294555664062 299.02294921875 283.782623291016 276.197998046875 -3.4e+38 -3.4e+38 -3.4e+38 -3.4e+38 -3.4e+38 -3.4e+38 -3.4e+38 -3.4e+38 -3.4e+38 -3.4e+38 -3.4e+38 -3.4e+38 -3.4e+38 -3.4e+38 -3.4e+38 -3.4e+38 -3.4e+38 -3.4e+38 -3.4e+38 -3.4e+38 -3.4e+38 -3.4e+38 -3.4e+38 -3.4e+38 -3.4e+38 -3.4e+38 -3.4e+38 -3.4e+38 -3.4e+38 -3.4e+38 -3.4e+38 -3.4e+38 -3.4e+38 -3.4e+38 -3.4e+38 -3.4e+38 -3.4e+38 -3.4e+38 -3.4e+38 -3.4e+38 -3.4e+38 -3.4e+38 -3.4e+38 -3.4e+38 -3.4e+38 -3.4e+38 -3.4e+38
102.530860900879 197.893676757812 266.177307128906 326.663787841797 296.056427001953 214.430206298828 168.879806518555 158.086990356445 129.632080078125 98.1086273193359 119.681449890137 109.832061767578 87.4092254638672 86.5421142578125 85.6721267700195 104.044456481934 92.8039474487305 67.5695419311523 57.5392532348633 35.5230407714844 31.4781913757324 63.0724563598633 75.7726287841797 65.7054214477539 51.310115814209 65.359748840332 94.8857955932617 107.511901855469 101.654998779297 79.1871719360352 60.6353378295898 43.2966957092285 32.1428260803223 19.5311450958252 21.8763084411621 15.5937070846558 8.32354640960693 3.14944982528687 5.10548686981201 5.86333179473877 4.60326719284058 7.30567264556885 16.6147708892822 24.664134979248 24.7460117340088 24.7719669342041 26.1093215942383 30.0516262054443 40.3243064880371 54.4981384277344 98.3686447143555 112.19905090332 90.9135894775391 88.2211685180664 78.5931091308594 59.9645004272461 33.710880279541 49.2618064880371 57.9040374755859 87.2832717895508 89.337776184082 90.3404159545898 111.654647827148 96.9409713745117 94.5258941650391 122.72631072998 105.315582275391 106.964462280273 106.66374206543 95.6858062744141 108.55933380127 121.920524597168 142.372634887695 144.098281860352 162.618545532227 146.341720581055 126.435478210449 144.628616333008 165.098419189453 161.786376953125 142.41682434082 121.572822570801 128.856842041016 150.836730957031 171.995895385742 172.861587524414 176.42170715332 167.075088500977 137.353149414062 123.381935119629 112.918670654297 99.6996459960938 77.5033187866211 94.4069747924805 137.035537719727 169.100738525391 154.271774291992 150.44677734375 168.533386230469 169.514266967773 161.033416748047 154.094177246094 160.142791748047 154.680053710938 156.842880249023 173.153335571289 173.353866577148 167.567993164062 165.336700439453 179.894500732422 186.911178588867 171.700866699219 146.288604736328 151.205230712891 137.022430419922 146.927307128906 157.337890625 159.117233276367 179.450210571289 174.647918701172 175.05924987793 177.609878540039 183.633926391602 175.289657592773 175.270690917969 176.457122802734 174.050109863281 179.76904296875 190.142929077148 191.286346435547 203.774810791016 206.272003173828 212.168334960938 227.481903076172 237.989761352539 248.894653320312 258.926544189453 277.735717773438 268.998138427734 282.504333496094 297.745452880859 297.972198486328 320.267150878906 358.770629882812 348.43359375 319.065856933594 290.170440673828 273.985198974609 289.029388427734 307.786071777344 301.044586181641 308.099822998047 326.058929443359 334.713500976562 314.046966552734 318.890747070312 337.166198730469 342.556823730469 318.250915527344 299.383605957031 298.138977050781 295.047515869141 280.539031982422 274.356170654297 280.694641113281 293.102111816406 300.197235107422 307.848388671875 312.734008789062 334.262969970703 356.794128417969 351.511016845703 335.501251220703 293.391174316406 279.462829589844 273.078277587891 -3.4e+38 -3.4e+38 -3.4e+38 -3.4e+38 -3.4e+38 -3.4e+38 -3.4e+38 -3.4e+38 -3.4e+38 -3.4e+38 -3.4e+38 -3.4e+38 -3.4e+38 -3.4e+38 -3.4e+38 -3.4e+38 -3.4e+38 -3.4e+38 -3.4e+38 -3.4e+38 -3.4e+38 -3.4e+38 -3.4e+38 -3.4e+38 -3.4e+38 -3.4e+38 -3.4e+38 -3.4e+38 -3.4e+38 -3.4e+38 -3.4e+38 -3.4e+38 -3.4e+38 -3.4e+38 -3.4e+38 -3.4e+38 -3.4e+38 -3.4e+38 -3.4e+38 -3.4e+38 -3.4e+38 -3.4e+38 -3.4e+38 -3.4e+38 -3.4e+38 -3.4e+38 -3.4e+38 -3.4e+38
162.690826416016 234.802352905273 293.015411376953 311.027557373047 221.725570678711 162.98844909668 151.813583374023 130.174179077148 105.358680725098 89.6293258666992 115.936645507812 129.241989135742 120.002700805664 133.353103637695 137.764053344727 121.326324462891 84.7134475708008 39.9454345703125 43.4867477416992 27.1921367645264 31.9312992095947 70.0388107299805 77.3974456787109 76.0180511474609 77.8935317993164 58.1926956176758 70.1277618408203 96.1577072143555 104.892211914062 94.7271728515625 59.2383995056152 41.5619430541992 40.134407043457 31.9329147338867 18.740083694458 7.80942106246948 3.53229737281799 4.27582502365112 5.67098999023438 5.33068370819092 3.50207090377808 11.9442358016968 19.1189308166504 22.6867637634277 24.6546077728271 26.3879108428955 31.3728408813477 37.6737060546875 51.4777565002441 56.8127784729004 75.9732513427734 74.1215362548828 62.2412376403809 56.3699150085449 44.8500099182129 30.6770305633545 27.2924461364746 41.7624397277832 43.9985961914062 54.9863624572754 66.481575012207 89.0096130371094 97.3037948608398 75.3742828369141 78.6240921020508 86.0387191772461 83.7746429443359 89.6196594238281 89.5939254760742 105.92992401123 115.659484863281 115.517578125 124.515121459961 147.667785644531 158.853668212891 128.296157836914 136.155639648438 156.211410522461 154.096145629883 152.837554931641 126.740745544434 136.567398071289 141.355041503906 149.178192138672 169.301605224609 176.163421630859 176.601318359375 176.732879638672 155.772369384766 142.127029418945 103.377937316895 79.3792190551758 81.5746994018555 129.660079956055 160.866012573242 152.034866333008 133.640777587891 159.679824829102 170.30615234375 161.203918457031 155.958633422852 147.450408935547 158.881912231445 147.376617431641 160.061477661133 175.602203369141 167.594146728516 157.031005859375 166.347732543945 176.011276245117 185.388916015625 157.123062133789 130.548538208008 122.375427246094 136.386444091797 148.976348876953 156.462203979492 170.085403442383 165.854309082031 161.803771972656 163.145156860352 166.407806396484 173.530242919922 169.675552368164 186.037155151367 185.845947265625 183.023300170898 182.699111938477 184.804916381836 190.528533935547 198.760223388672 200.965927124023 213.854415893555 219.659301757812 227.24836730957 241.319229125977 243.347991943359 238.087188720703 247.711288452148 267.571228027344 277.557281494141 303.319549560547 324.101226806641 349.517547607422 359.546295166016 339.53271484375 302.087829589844 271.312225341797 272.572479248047 296.769958496094 281.029907226562 284.028778076172 313.620819091797 327.316589355469 305.034912109375 314.753479003906 323.401977539062 339.236389160156 339.723510742188 320.646697998047 308.237182617188 297.258850097656 291.471954345703 275.925445556641 273.079803466797 281.990417480469 285.363830566406 302.507293701172 318.009582519531 327.202514648438 335.430725097656 325.2509765625 332.250518798828 322.293426513672 292.050506591797 266.414245605469 -3.4e+38 -3.4e+38 -3.4e+38 -3.4e+38 -3.4e+38 -3.4e+38 -3.4e+38 -3.4e+38 -3.4e+38 -3.4e+38 -3.4e+38 -3.4e+38 -3.4e+38 -3.4e+38 -3.4e+38 -3.4e+38 -3.4e+38 -3.4e+38 -3.4e+38 -3.4e+38 -3.4e+38 -3.4e+38 -3.4e+38 -3.4e+38 -3.4e+38 -3.4e+38 -3.4e+38 -3.4e+38 -3.4e+38 -3.4e+38 -3.4e+38 -3.4e+38 -3.4e+38 -3.4e+38 -3.4e+38 -3.4e+38 -3.4e+38 -3.4e+38 -3.4e+38 -3.4e+38 -3.4e+38 -3.4e+38 -3.4e+38 -3.4e+38 -3.4e+38 -3.4e+38 -3.4e+38 -3.4e+38
252.989761352539 302.245452880859 309.457824707031 232.347961425781 173.754776000977 147.517135620117 120.91796875 114.499420166016 92.6382598876953 85.1565628051758 109.997680664062 132.728744506836 142.784469604492 162.82600402832 180.204925537109 142.751342773438 52.0488395690918 32.5634880065918 30.7057399749756 17.8619117736816 44.5411224365234 61.8401718139648 80.6025924682617 77.7045669555664 78.2715759277344 89.1462554931641 50.9308395385742 69.5594787597656 81.8141250610352 81.6506958007812 57.0456123352051 39.5129814147949 32.236701965332 37.9649353027344 27.5060634613037 3.56796765327454 3.27916240692139 4.76248121261597 5.40818929672241 3.80902028083801 4.83672714233398 5.27283430099487 5.05269289016724 8.42391014099121 12.7055959701538 13.0987138748169 26.4629917144775 39.9932594299316 42.8052215576172 40.7453918457031 36.7695274353027 26.5781993865967 24.42067527771 24.6210441589355 26.3657932281494 33.698413848877 65.0383529663086 78.5803680419922 83.9088821411133 64.0031204223633 51.9645042419434 60.8369560241699 68.2914657592773 77.0600433349609 90.7285079956055 96.8352890014648 103.770172119141 103.571006774902 109.099227905273 106.661201477051 114.479118347168 131.109161376953 141.726593017578 153.204345703125 140.158767700195 118.453147888184 140.262023925781 140.931945800781 141.420318603516 135.345809936523 125.00129699707 148.792495727539 153.691162109375 152.982147216797 166.379135131836 153.755706787109 146.598983764648 154.032821655273 161.426208496094 140.020385742188 91.2605819702148 75.3764114379883 114.97932434082 142.979400634766 157.942001342773 125.665191650391 142.919998168945 162.437469482422 160.517486572266 148.935592651367 146.717346191406 137.927368164062 144.253555297852 158.502792358398 168.502853393555 159.843627929688 152.823318481445 157.416793823242 162.110687255859 182.052719116211 178.393661499023 141.112838745117 120.709442138672 125.95588684082 131.487930297852 137.755020141602 148.847732543945 149.044815063477 142.771881103516 141.876586914062 146.117080688477 157.520919799805 164.421203613281 178.308624267578 186.204528808594 192.555557250977 196.458602905273 196.93977355957 197.688613891602 204.794082641602 207.658782958984 209.045700073242 212.208206176758 209.932815551758 229.771957397461 220.417434692383 223.030532836914 224.21549987793 239.352127075195 249.839462280273 263.656463623047 287.587127685547 307.653930664062 328.760955810547 347.104339599609 349.281097412109 324.669464111328 289.29296875 262.285766601562 261.588348388672 268.707550048828 295.504852294922 314.733001708984 310.465301513672 298.533020019531 300.180267333984 318.974029541016 323.735900878906 341.344177246094 344.022094726562 316.589050292969 305.514678955078 309.364898681641 295.982055664062 271.956878662109 265.755706787109 280.284576416016 293.971313476562 309.898498535156 309.738739013672 314.937286376953 300.80712890625 308.550598144531 309.100219726562 306.077117919922 277.40478515625 -3.4e+38 -3.4e+38 -3.4e+38 -3.4e+38 -3.4e+38 -3.4e+38 236.84228515625 235.171417236328 227.775909423828 213.35546875 221.084747314453 -3.4e+38 -3.4e+38 -3.4e+38 -3.4e+38 -3.4e+38 -3.4e+38 -3.4e+38 -3.4e+38 -3.4e+38 -3.4e+38 -3.4e+38 -3.4e+38 -3.4e+38 -3.4e+38 -3.4e+38 -3.4e+38 -3.4e+38 -3.4e+38 -3.4e+38 -3.4e+38 -3.4e+38 -3.4e+38 -3.4e+38 -3.4e+38 -3.4e+38 -3.4e+38 -3.4e+38 -3.4e+38 -3.4e+38 -3.4e+38 -3.4e+38 -3.4e+38 -3.4e+38 -3.4e+38 -3.4e+38 -3.4e+38 -3.4e+38
191.611465454102 294.557861328125 234.229507446289 166.005889892578 139.270553588867 131.8916015625 118.541641235352 125.397285461426 103.785888671875 89.7198181152344 98.4048614501953 124.036560058594 113.087425231934 163.371398925781 223.896759033203 155.148849487305 53.3682556152344 38.9800186157227 31.1353931427002 16.092981338501 27.9944553375244 39.6181411743164 85.679328918457 80.7004089355469 67.0810699462891 90.5506973266602 84.3063583374023 48.4623680114746 42.3556175231934 49.6262969970703 47.7517929077148 33.0265579223633 26.4502563476562 23.5741577148438 8.75590133666992 2.33535814285278 3.86898612976074 5.12568473815918 3.29354786872864 4.34725856781006 10.4803018569946 7.28860187530518 5.21863079071045 9.57342720031738 8.56700611114502 6.28044176101685 5.3828182220459 7.29718208312988 11.6669759750366 16.1392269134521 20.0048446655273 32.6732177734375 51.073902130127 66.7167434692383 78.1908264160156 90.2277679443359 98.3305740356445 99.3274078369141 106.13655090332 88.803596496582 87.525260925293 95.1093063354492 106.817749023438 122.103187561035 134.273101806641 132.472457885742 126.273056030273 117.078407287598 126.258773803711 124.584465026855 117.400367736816 130.260711669922 152.501205444336 139.236999511719 119.698799133301 116.196327209473 139.577819824219 123.864440917969 122.540878295898 120.034286499023 136.245651245117 145.676803588867 152.141036987305 160.711944580078 166.131225585938 158.146896362305 132.879455566406 124.656677246094 128.487579345703 97.7259063720703 77.1972427368164 77.5933685302734 106.175117492676 122.849914550781 132.038482666016 127.409118652344 156.545349121094 148.762634277344 138.342971801758 130.002716064453 134.968322753906 141.694808959961 152.05810546875 160.028060913086 157.475067138672 153.340896606445 159.895370483398 176.815948486328 179.934066772461 184.156387329102 161.160720825195 131.006744384766 130.143112182617 145.23258972168 152.724746704102 156.657608032227 157.132125854492 171.954147338867 168.308242797852 160.72721862793 162.042022705078 159.419494628906 184.522918701172 207.544952392578 205.229217529297 193.158187866211 196.976409912109 206.390777587891 209.033020019531 212.724807739258 219.096664428711 219.787857055664 209.307891845703 210.184204101562 209.583480834961 207.990219116211 216.570999145508 226.103302001953 235.838195800781 248.209823608398 248.887359619141 270.627014160156 315.555694580078 317.189300537109 310.928649902344 327.175720214844 343.089233398438 312.932556152344 288.099090576172 251.789138793945 262.156097412109 294.093139648438 300.704498291016 296.799896240234 279.291717529297 307.000579833984 297.473114013672 300.350646972656 328.666809082031 344.959045410156 336.953765869141 325.493713378906 317.141204833984 299.698425292969 283.34814453125 262.304718017578 260.388824462891 278.422515869141 298.155700683594 294.867126464844 302.111938476562 296.861755371094 290.020629882812 289.960845947266 284.624633789062 284.037902832031 266.876647949219 243.105270385742 244.144058227539 -3.4e+38 253.902694702148 248.939102172852 235.716613769531 222.613784790039 222.749099731445 210.839324951172 212.73796081543 221.727325439453 223.106292724609 -3.4e+38 -3.4e+38 -3.4e+38 -3.4e+38 -3.4e+38 -3.4e+38 -3.4e+38 -3.4e+38 -3.4e+38 -3.4e+38 -3.4e+38 -3.4e+38 -3.4e+38 -3.4e+38 -3.4e+38 -3.4e+38 -3.4e+38 -3.4e+38 -3.4e+38 -3.4e+38 -3.4e+38 -3.4e+38 -3.4e+38 -3.4e+38 -3.4e+38 -3.4e+38 -3.4e+38 -3.4e+38 -3.4e+38 -3.4e+38 -3.4e+38 -3.4e+38 -3.4e+38 -3.4e+38 -3.4e+38
222.252548217773 201.835174560547 169.608001708984 147.7373046875 130.002487182617 124.254203796387 119.485038757324 116.370880126953 104.536193847656 87.9695053100586 98.6365432739258 119.310272216797 144.869018554688 185.855422973633 233.136505126953 151.016586303711 48.4053573608398 34.7985343933105 43.727466583252 26.034574508667 7.16129064559937 20.3805656433105 71.3332901000977 71.8809356689453 58.3628005981445 56.8549880981445 72.5540924072266 57.6953201293945 23.9873523712158 30.4821739196777 33.2068977355957 20.5847053527832 17.3957386016846 5.73880290985107 2.32407593727112 3.70970749855042 4.58086585998535 4.1059741973877 3.5169997215271 11.0274801254272 19.3567752838135 23.3655319213867 9.16349315643311 19.1414604187012 30.0002841949463 39.0010147094727 20.3920555114746 30.4130744934082 49.2146263122559 45.7035675048828 60.936653137207 80.3279800415039 81.4503784179688 86.9229888916016 91.6341400146484 97.1414337158203 99.4086151123047 93.1354598999023 97.7794036865234 100.26579284668 105.724182128906 111.73363494873 118.27668762207 129.459365844727 140.792861938477 138.892700195312 147.082702636719 142.690643310547 144.677459716797 146.688919067383 135.377410888672 143.374450683594 151.63996887207 141.466018676758 116.96565246582 112.958656311035 115.706077575684 115.984382629395 124.267112731934 135.977523803711 145.790252685547 145.869094848633 147.472198486328 149.951293945312 155.782348632812 147.170516967773 120.891441345215 104.933074951172 111.912399291992 84.5155410766602 75.1186065673828 101.093048095703 98.6792984008789 93.204216003418 96.0494613647461 129.020919799805 143.300323486328 133.184188842773 133.046340942383 128.358795166016 126.610214233398 133.606643676758 138.695770263672 134.714996337891 151.040115356445 163.280990600586 167.807479858398 176.682525634766 190.570495605469 180.109237670898 149.119064331055 134.060974121094 138.030227661133 154.990463256836 162.227432250977 175.109573364258 182.078048706055 182.819244384766 182.654937744141 177.309814453125 176.832672119141 175.295547485352 184.666091918945 199.258575439453 208.781997680664 203.707626342773 209.550628662109 223.592498779297 230.329330444336 222.252136230469 229.026580810547 220.806732177734 200.638565063477 198.190322875977 195.4658203125 204.623809814453 221.952789306641 226.778121948242 233.871688842773 227.651062011719 238.443298339844 250.636779785156 287.745788574219 313.607055664062 288.583312988281 318.0185546875 338.607025146484 320.867370605469 306.021240234375 280.011260986328 253.379455566406 267.286315917969 272.619110107422 268.237426757812 281.862915039062 299.881958007812 284.202056884766 295.642120361328 313.178283691406 320.252044677734 323.937866210938 309.598754882812 303.435241699219 298.813690185547 280.317230224609 265.043212890625 249.104904174805 266.188201904297 283.827484130859 283.679748535156 287.249176025391 295.317718505859 292.450775146484 279.537689208984 275.777313232422 269.804992675781 262.509094238281 264.314727783203 249.476821899414 235.608200073242 230.762191772461 228.873001098633 222.944351196289 221.813934326172 213.059310913086 208.412231445312 203.811645507812 213.921615600586 216.678787231445 219.196273803711 -3.4e+38 -3.4e+38 -3.4e+38 -3.4e+38 -3.4e+38 -3.4e+38 -3.4e+38 -3.4e+38 -3.4e+38 -3.4e+38 -3.4e+38 -3.4e+38 -3.4e+38 -3.4e+38 -3.4e+38 -3.4e+38 -3.4e+38 -3.4e+38 -3.4e+38 -3.4e+38 -3.4e+38 -3.4e+38 -3.4e+38 -3.4e+38 -3.4e+38 -3.4e+38 -3.4e+38 -3.4e+38 -3.4e+38 -3.4e+38 -3.4e+38 -3.4e+38 -3.4e+38 -3.4e+38
